# .PCD v0.7 - Point Cloud Data file format
VERSION 0.7
FIELDS x y z intensity
SIZE 4 4 4 4
TYPE F F F F
COUNT 1 1 1 1
WIDTH 1416
HEIGHT 1
VIEWPOINT 0 0 0 1 0 0 0
POINTS 1416
DATA ascii
1.8037497 0.99654502 -0.34854665 0
1.7390636 0.13778351 -0.3536571 0
1.6539695 -0.60526693 -0.34649915 0
1.6295414 -1.5902028 -0.35899195 0
0 0 0 0
1.8244698 0.99928194 -0.35333437 0
1.7492909 0.13183688 -0.35595012 0
1.6703156 -0.61819994 -0.34942734 0
1.6340209 -1.6074306 -0.35852802 0
0 0 0 0
1.7976456 0.97563565 -0.34961548 0
1.749598 0.12510581 -0.35686857 0
1.6680436 -0.62465161 -0.34880561 0
1.6429454 -1.6269655 -0.35960114 0
0 0 0 0
1.7924216 0.96431267 -0.34864104 0
1.7550784 0.11872605 -0.35725141 0
1.6659169 -0.63115942 -0.34725112 0
1.6541526 -1.651268 -0.36099565 0
0 0 0 0
1.8175832 0.96886897 -0.35465944 0
1.7505693 0.11167027 -0.35656247 0
1.6728168 -0.64112943 -0.3482264 0
1.6445813 -1.6543695 -0.35778981 0
0 0 0 0
1.7770126 0.9396888 -0.3475782 0
1.7460575 0.10526411 -0.35556647 0
1.6752026 -0.64909559 -0.34823981 0
1.6527008 -1.6747696 -0.35794753 0
0 0 0 0
1.7542101 0.919029 -0.34384939 0
1.7268808 0.097454667 -0.35158253 0
1.6773815 -0.65735859 -0.34856242 0
1.6606514 -1.6952094 -0.35847062 0
0 0 0 0
1.7794262 0.92354923 -0.3491759 0
1.761431 0.092620954 -0.35886225 0
1.6659983 -0.66028821 -0.34509915 0
1.6684333 -1.7156875 -0.35936958 0
1.8767483 2.3450801 -0.35922047 0
1.7563032 0.90339231 -0.34540725 0
1.7519859 0.085379899 -0.35686857 0
1.6681762 -0.66857415 -0.34510368 0
1.6693069 -1.7292217 -0.35791841 0
1.8445489 2.2876079 -0.35509217 0
1.7554679 0.89368385 -0.34592122 0
1.7424768 0.077601738 -0.35517934 0
1.6884009 -0.68455887 -0.34886432 0
1.6769054 -1.7498831 -0.35832644 0
1.8800429 2.3158686 -0.36361441 0
1.7670512 0.89221472 -0.34868735 0
1.7672137 0.072523363 -0.3601678 0
1.6679901 -0.68307251 -0.34415928 0
1.6741478 -1.7598726 -0.35651428 0
1.8324645 2.2388339 -0.35625905 0
1.7614387 0.8809095 -0.34832758 0
1.728333 0.063677154 -0.35218626 0
1.6700596 -0.69141978 -0.34415069 0
1.6883239 -1.787851 -0.35829595 0
1.8239025 2.2133574 -0.3557066 0
1.7600807 0.87218064 -0.34848535 0
1.7431931 0.05752309 -0.35548377 0
1.6723225 -0.69954765 -0.34350407 0
1.6820577 -1.7943449 -0.35529143 0
1.8222166 2.1948705 -0.35734588 0
1.7411026 0.85446507 -0.34547246 0
1.7384862 0.051293377 -0.35448521 0
1.6832541 -0.7117269 -0.34597787 0
1.6921787 -1.8190901 -0.35713139 0
1.8013643 2.1536434 -0.35469306 0
1.74858 0.84981924 -0.34770662 0
1.7288827 0.044064593 -0.3524881 0
1.6762675 -0.71637225 -0.3434571 0
1.6894721 -1.8289409 -0.35480112 0
1.789418 2.1242495 -0.35432667 0
1.7336732 0.83473325 -0.34586483 0
1.7387116 0.037635215 -0.35509229 0
1.7006252 -0.7345171 -0.34868836 0
1.7161403 -1.8721821 -0.3591955 0
1.7776576 2.0946591 -0.35388699 0
1.7455852 0.83222747 -0.34864655 0
1.7437414 0.031045986 -0.35609254 0
1.7114527 -0.74735957 -0.34983352 0
1.7222297 -1.8940336 -0.35886887 0
1.7754147 2.0765407 -0.35483184 0
1.7083635 0.80681026 -0.34198135 0
1.7292756 0.02414681 -0.3524881 0
1.6953028 -0.74807113 -0.34577811 0
1.7294265 -1.9146658 -0.35939404 0
1.7501003 2.0325255 -0.3507328 0
1.72883 0.8091073 -0.34654313 0
1.7440463 0.018264277 -0.35548377 0
1.7108077 -0.76205844 -0.34846625 0
1.7326087 -1.9323803 -0.35829288 0
1.7605042 2.0295169 -0.35466385 0
1.7317591 0.80238676 -0.34754252 0
1.7440416 0.011567091 -0.35578814 0
1.7217308 -0.774499 -0.3495627 0
1.7554039 -1.9723003 -0.361682 0
1.7181176 1.9674346 -0.34712794 0
1.7076457 0.78362453 -0.34347993 0
1.7194551 0.0048016366 -0.35139138 0
1.7008957 -0.77299273 -0.34559536 0
1.7451327 -1.9752907 -0.35824344 0
1.7344707 1.9722229 -0.35277155 0
1.7235825 0.78366601 -0.34749934 0
1.7146238 -0.0011970333 -0.35009098 0
1.7117593 -0.78515059 -0.34733769 0
1.7609975 -2.008033 -0.3601605 0
1.7184416 1.9396147 -0.35082614 0
1.7174995 0.77295601 -0.34635159 0
1.734202 -0.0078696134 -0.35409203 0
1.7224216 -0.79769522 -0.34906453 0
1.7838733 -2.0477765 -0.36333051 0
1.715397 1.9219398 -0.35151163 0
1.6976988 0.75657439 -0.34280327 0
1.7194577 -0.01500548 -0.35109124 0
1.7283038 -0.8092289 -0.3488749 0
1.7920895 -2.0739591 -0.3637754 0
1.7026416 1.8929673 -0.35012212 0
1.6868223 0.74397725 -0.34169161 0
1.7242935 -0.021067265 -0.35209149 0
1.7302238 -0.8171342 -0.34877223 0
1.7919066 -2.0877018 -0.36221015 0
1.7326001 1.9121324 -0.35759267 0
1.6985681 0.74138016 -0.34416091 0
1.7537143 -0.028161861 -0.35748085 0
1.7316782 -0.82596815 -0.34866428 0
1.812765 -2.1292384 -0.36417973 0
1.6859276 1.8469735 -0.34922987 0
1.6784379 0.72528183 -0.34119219 0
1.7142848 -0.034113202 -0.35009098 0
1.7195584 -0.82904661 -0.34554365 0
1.8211974 -2.1550961 -0.36445373 0
1.7085871 1.8593767 -0.35489136 0
1.6900839 0.72262573 -0.34398901 0
1.7288339 -0.041044135 -0.35309178 0
1.7258124 -0.83912647 -0.34632006 0
1.8269985 -2.1765602 -0.36453608 0
1.7049637 1.841838 -0.35630852 0
1.6972059 0.71797526 -0.34587374 0
1.748314 -0.048224084 -0.35678756 0
1.748999 -0.85947698 -0.35028765 0
1.831225 -2.199465 -0.36358452 0
1.6777331 1.7991484 -0.35142767 0
1.6951263 0.709782 -0.34591368 0
1.733426 -0.054475103 -0.35378933 0
1.7414412 -0.86408019 -0.34838521 0
1.8649091 -2.2558906 -0.36820054 0
1.6772861 1.7855036 -0.35257903 0
1.6794039 0.6956318 -0.34380049 0
1.7234118 -0.060785193 -0.35179055 0
1.7604858 -0.8815856 -0.35142073 0
1.8411357 -2.2438295 -0.36204091 0
1.6835644 1.7790749 -0.35514423 0
1.690745 0.69342512 -0.34661576 0
1.7476425 -0.068359569 -0.35678756 0
1.7620649 -0.89008301 -0.35057664 0
1.8770481 -2.3047714 -0.36707389 0
1.679575 1.7618793 -0.35554108 0
1.6799209 0.68077934 -0.34413683 0
1.7327189 -0.075046167 -0.35348666 0
1.7586954 -0.89726025 -0.34919837 0
1.8844283 -2.3312318 -0.36699906 0
1.6685878 1.7375573 -0.35487127 0
1.6958013 0.67998928 -0.34852925 0
1.7226727 -0.080335207 -0.35148957 0
1.7553995 -0.90409005 -0.34816459 0
1.8730047 -2.3345499 -0.36325735 0
1.6843941 1.7424145 -0.35959542 0
1.6980513 0.67402083 -0.34916699 0
1.7566652 -0.088681445 -0.35817242 0
1.77446 -0.9213649 -0.35111004 0
1.9141486 -2.4038301 -0.36967835 0
1.6496962 1.6928693 -0.35326445 0
1.6594881 0.65068036 -0.34196386 0
1.7220334 -0.094166316 -0.35118857 0
1.7708018 -0.92890328 -0.34971407 0
1.8871717 -2.3878596 -0.36184576 0
1.6553787 1.6868796 -0.3553271 0
1.6752568 0.65046215 -0.34541735 0
1.7509789 -0.1018807 -0.35748085 0
1.7764179 -0.93977106 -0.35038459 0
1.9092869 -2.4341288 -0.36450922 0
1.6609507 1.6807811 -0.35821429 0
1.6866266 0.64743525 -0.3488816 0
1.7456851 -0.10829984 -0.3564823 0
1.7818689 -0.95102984 -0.35069215 0
1.9219407 -2.4688413 -0.36532861 0
1.6462002 1.6531101 -0.35616118 0
1.6613921 0.63044012 -0.34412375 0
1.7453184 -0.11500607 -0.35617703 0
1.8041055 -0.97262955 -0.35439345 0
1.9318073 -2.4994664 -0.36494875 0
1.6379834 1.6328455 -0.35556504 0
1.6728231 0.62744033 -0.34696054 0
1.7545962 -0.12300105 -0.35817242 0
1.7834306 -0.96993649 -0.34956864 0
1.9371384 -2.5272665 -0.36392784 0
1.6260867 1.6091468 -0.35456148 0
1.6703961 0.61955595 -0.34662926 0
1.7492079 -0.12876074 -0.35748085 0
1.7885472 -0.9816367 -0.3498413 0
1.9410139 -2.5497906 -0.36284325 0
1.6277137 1.6001083 -0.35538927 0
1.6403382 0.60125262 -0.34085977 0
1.7440017 -0.13511221 -0.35556647 0
1.7941743 -0.99248129 -0.34974217 0
1.9349165 -2.5612044 -0.3594844 0
1.602028 1.5622623 -0.35080957 0
1.6563078 0.59990203 -0.34465459 0
1.7337028 -0.14101325 -0.35357451 0
1.8031242 -1.0073191 -0.35082254 0
1.9734755 -2.6322477 -0.36436898 0
1.5932405 1.5423406 -0.35042131 0
1.6629915 0.5951097 -0.3468478 0
1.7476807 -0.14952181 -0.35686857 0
1.8124111 -1.0212412 -0.35260823 0
1.992736 -2.6802881 -0.36695856 0
1.5983933 1.5365572 -0.35235631 0
1.6464902 0.58240604 -0.34390843 0
1.7374493 -0.15475756 -0.35457048 0
1.800118 -1.0234406 -0.34949157 0
1.9904772 -2.6948905 -0.36395782 0
1.5965585 1.5235734 -0.35348326 0
1.6439135 0.57440221 -0.34385425 0
1.7515407 -0.16279383 -0.35725141 0
1.8051211 -1.035058 -0.34970319 0
2.0249319 -2.7626696 -0.36787325 0
1.6018622 1.5174559 -0.3557941 0
1.6549526 0.57178509 -0.34701392 0
1.7460254 -0.16904587 -0.35625628 0
1.8226873 -1.0544509 -0.35237664 0
2.0091691 -2.762341 -0.36322865 0
1.5927142 1.497752 -0.35528159 0
1.6383983 0.55903292 -0.34403229 0
1.7453017 -0.17574264 -0.35656247 0
1.7934625 -1.0463358 -0.3459757 0
2.0399942 -2.8264415 -0.36698061 0
1.5871446 1.4815906 -0.35477051 0
1.6406116 0.55212682 -0.34463653 0
1.739862 -0.18255985 -0.35465053 0
1.8108938 -1.0658467 -0.34861779 0
2.0491884 -2.8633316 -0.36572924 0
1.5925483 1.4752321 -0.35704401 0
1.6469144 0.54817474 -0.34652174 0
1.7490194 -0.18969545 -0.35633031 0
1.8369851 -1.0902884 -0.35210943 0
2.0739679 -2.9194353 -0.3681781 0
1.586821 1.4591566 -0.35649097 0
1.6444227 0.53970474 -0.346147 0
1.7287039 -0.19451624 -0.3526637 0
1.8373156 -1.0996107 -0.35217521 0
2.0663774 -2.9314482 -0.36430794 0
1.5694793 1.433634 -0.35419366 0
1.6320771 0.52934939 -0.34440318 0
1.7329431 -0.20112139 -0.35335261 0
1.8290657 -1.104234 -0.34987226 0
2.092941 -2.9923627 -0.36641553 0
1.585453 1.4376009 -0.3585268 0
1.6479307 0.52750677 -0.34826121 0
1.7468168 -0.20953223 -0.35602325 0
1.8547214 -1.1290188 -0.35401261 0
2.1247284 -3.0616422 -0.3700012 0
1.5394143 1.3851222 -0.34876871 0
1.6264594 0.51375711 -0.34392375 0
1.746061 -0.21624559 -0.35571617 0
1.8464291 -1.1337107 -0.35131738 0
2.1029921 -3.0530181 -0.3634963 0
1.5478386 1.3824697 -0.35213488 0
1.6375479 0.51035291 -0.3470979 0
1.7402949 -0.2223195 -0.35503155 0
1.8424697 -1.1405995 -0.34980461 0
2.1341224 -3.1226492 -0.36685446 0
1.5747459 1.39616 -0.35935751 0
1.63455 0.50285321 -0.34700167 0
1.7637845 -0.23220661 -0.35967958 0
1.8550329 -1.1582531 -0.35146523 0
2.150846 -3.172014 -0.36699951 0
1.53916 1.3540902 -0.35188916 0
1.6222867 0.49226984 -0.34461066 0
1.7483723 -0.23701067 -0.35639909 0
1.855161 -1.167805 -0.35072833 0
2.197803 -3.2669795 -0.37219837 0
1.5437878 1.3481559 -0.35439345 0
1.6240495 0.48600259 -0.34520242 0
1.7378024 -0.2423767 -0.35411286 0
1.8635815 -1.1826648 -0.35155728 0
2.1921296 -3.2832341 -0.36900553 0
1.5591793 1.3525099 -0.35875055 0
1.6208063 0.47887415 -0.34538466 0
1.7514136 -0.25113454 -0.35708031 0
1.8592844 -1.1899766 -0.34963101 0
2.2023244 -3.3248267 -0.36785612 0
1.5414937 1.3272985 -0.35538861 0
1.6319234 0.4753533 -0.34798023 0
1.7409225 -0.25645614 -0.35418066 0
1.8717157 -1.2076259 -0.35120469 0
2.2150147 -3.3707554 -0.36635798 0
1.5275276 1.3050929 -0.35354096 0
1.6196004 0.46441296 -0.34585401 0
1.7398639 -0.26312968 -0.35448778 0
1.8838311 -1.2257128 -0.35275066 0
2.2272949 -3.4166632 -0.36686957 0
1.539575 1.3056545 -0.35703576 0
1.6304032 0.46135759 -0.34904781 0
1.753433 -0.27207252 -0.35714039 0
1.8795826 -1.2327774 -0.35078922 0
2.2697017 -3.5084248 -0.37072369 0
1.5365313 1.2934211 -0.35739756 0
1.6130992 0.45008188 -0.34559718 0
1.742816 -0.2772823 -0.35455129 0
1.8752555 -1.2397929 -0.34921989 0
2.2785923 -3.5506349 -0.36910459 0
1.522311 1.2714958 -0.35509497 0
1.6194202 0.44515052 -0.34719396 0
1.7368393 -0.28317344 -0.35387355 0
1.8789572 -1.2526348 -0.34878436 0
2.2925544 -3.6013627 -0.36824685 0
1.5190973 1.2593884 -0.35539928 0
1.6303345 0.44142467 -0.35039768 0
1.7551916 -0.29277366 -0.35750586 0
1.8908612 -1.2706059 -0.35104203 0
2.3254395 -3.6813259 -0.37023216 0
1.5154293 1.2478914 -0.35534 0
1.6035182 0.42756239 -0.34488311 0
1.7348478 -0.29623133 -0.35295206 0
1.9107708 -1.294662 -0.35359684 0
2.3571084 -3.7619267 -0.37278479 0
1.4974915 1.2226304 -0.35202116 0
1.6192354 0.42510051 -0.34851956 0
1.7579051 -0.3071197 -0.3575564 0
1.9102978 -1.304583 -0.35273913 0
2.3639553 -3.8052509 -0.36987734 0
1.4936106 1.2112294 -0.35224366 0
1.6158812 0.41759443 -0.34866574 0
1.7565901 -0.31384534 -0.35817927 0
1.9178714 -1.3200886 -0.35378125 0
2.3736885 -3.8523464 -0.36963162 0
1.5016304 1.208637 -0.35482687 0
1.6126117 0.41015044 -0.3482241 0
1.7459103 -0.31885982 -0.35528204 0
1.9255099 -1.3357738 -0.35358071 0
2.4377875 -3.9890387 -0.37531701 0
1.4867603 1.1872901 -0.35229364 0
1.6092504 0.40272316 -0.34806857 0
1.735034 -0.3237626 -0.35331914 0
1.9206189 -1.3433335 -0.35153553 0
2.4628489 -4.0618453 -0.37551573 0
1.5100241 1.1968303 -0.35919955 0
1.6200504 0.3988221 -0.35128692 0
1.7577969 -0.33499971 -0.35853869 0
1.932 -1.3618662 -0.35326445 0
2.4686973 -4.1053553 -0.37365165 0
1.4873194 1.1695644 -0.35443658 0
1.602295 0.38852412 -0.34774178 0
1.7421825 -0.33896154 -0.35497227 0
1.9350699 -1.3751825 -0.35267103 0
2.5355761 -4.251781 -0.38004595 0
1.4603145 1.1396919 -0.34901169 0
1.613055 0.38458145 -0.35096332 0
1.7506081 -0.3475824 -0.35631046 0
1.9382588 -1.3881687 -0.35247618 0
2.5514185 -4.3124952 -0.37851718 0
1.4720083 1.1401615 -0.35248819 0
1.6001793 0.37472939 -0.34843114 0
1.7395887 -0.35234267 -0.35466251 0
1.9373184 -1.3982663 -0.35195652 0
2.5711522 -4.3824229 -0.37758273 0
1.4717922 1.1317966 -0.3535026 0
1.6014181 0.36912775 -0.34871799 0
1.7383441 -0.35904461 -0.35404292 0
1.9481843 -1.4175178 -0.3527689 0
2.6129789 -4.4913502 -0.37975726 0
1.4561164 1.1112731 -0.35074502 0
1.5979426 0.36128432 -0.34882396 0
1.7273563 -0.36369619 -0.3520869 0
1.9432231 -1.4248302 -0.35066625 0
2.6199181 -4.5396605 -0.37754869 0
1.4676646 1.1115975 -0.35487527 0
1.618108 0.35991126 -0.35385701 0
1.7451242 -0.37444082 -0.35599896 0
1.9540544 -1.4438139 -0.35227439 0
2.6530318 -4.6362062 -0.37820747 0
1.4402781 1.0821776 -0.34887686 0
1.60025 0.34949613 -0.35025349 0
1.7390101 -0.37980145 -0.35471028 0
1.9529154 -1.4540682 -0.35129213 0
2.6986141 -4.7542834 -0.38035724 0
1.45181 1.0825402 -0.35267475 0
1.6013407 0.34329766 -0.35139692 0
1.7327524 -0.38541129 -0.35373312 0
1.9633471 -1.4735869 -0.35243443 0
2.7033832 -4.8036108 -0.37770855 0
1.4517133 1.0738192 -0.3536101 0
1.5881162 0.33408964 -0.34909987 0
1.7505113 -0.39642143 -0.35701528 0
1.9818157 -1.4988354 -0.35496315 0
2.749181 -4.9271545 -0.37970281 0
1.4276079 1.0479152 -0.34904769 0
1.5892081 0.32795227 -0.34994954 0
1.7250832 -0.3976326 -0.35213801 0
1.9683691 -1.5005815 -0.35182106 0
2.7877178 -5.0374665 -0.38139555 0
1.4191674 1.034116 -0.34737301 0
1.5711751 0.31794614 -0.34629288 0
1.7330924 -0.40649313 -0.35408893 0
1.9787546 -1.5199987 -0.3528938 0
2.8198555 -5.1399174 -0.38117376 0
1.4305009 1.0343688 -0.35177878 0
1.5816733 0.31375352 -0.34981173 0
1.7458289 -0.41655913 -0.35701528 0
1.9733646 -1.5273913 -0.35115173 0
2.8464825 -5.2338514 -0.3810986 0
1.4060992 1.0088971 -0.34675112 0
1.5682386 0.30483472 -0.34774703 0
1.7299198 -0.41979021 -0.35408893 0
1.9715339 -1.5381156 -0.35053921 0
2.8899732 -5.3582973 -0.38302216 0
1.3855714 0.99453437 -0.34451914 0
1.5388175 0.29911584 -0.34437659 0
1.695778 -0.41181865 -0.35091639 0
1.947365 -1.519807 -0.35068628 0
2.808337 -5.2091117 -0.37854517 0
1.3938502 1.0086085 -0.34628808 0
1.571189 0.31167379 -0.35188636 0
1.7066423 -0.40752399 -0.35411286 0
1.9447563 -1.5063341 -0.35228634 0
2.7523119 -5.0628042 -0.37870881 0
1.3900158 1.0139886 -0.3459878 0
1.5458156 0.31309515 -0.34734812 0
1.6792098 -0.39416429 -0.34998447 0
1.9145628 -1.4717518 -0.34927908 0
2.7226167 -4.9647293 -0.38005745 0
1.3983836 1.0279665 -0.3474305 0
1.5590678 0.32201618 -0.35001859 0
1.6947262 -0.39125836 -0.35418165 0
1.8999354 -1.4494601 -0.34862021 0
2.6310494 -4.7582831 -0.37258127 0
1.3909923 1.0300317 -0.34554285 0
1.5625985 0.32900631 -0.35109225 0
1.7055293 -0.3868607 -0.35739803 0
1.8891671 -1.4303215 -0.34821466 0
2.5841751 -4.6352277 -0.37295687 0
1.38722 1.0355092 -0.34433442 0
1.5517149 0.33294213 -0.34922189 0
1.6830345 -0.3749693 -0.35269341 0
1.8821926 -1.4142178 -0.34891033 0
2.5789213 -4.5862012 -0.37623072 0
1.4266731 1.0731245 -0.35412967 0
1.5504249 0.33889779 -0.34922189 0
1.6890059 -0.36949819 -0.35490254 0
1.8830559 -1.404098 -0.35104734 0
2.5257576 -4.4551849 -0.37429047 0
1.4228367 1.0788181 -0.35226002 0
1.5587648 0.34699723 -0.35081354 0
1.6567724 -0.35578614 -0.34845632 0
1.8641436 -1.3793937 -0.34823212 0
2.4750156 -4.3286252 -0.37054244 0
1.4188789 1.0844225 -0.35101336 0
1.52414 0.34543699 -0.34303102 0
1.6769924 -0.35370341 -0.35368133 0
1.8690822 -1.371973 -0.35106507 0
2.462461 -4.2719922 -0.37335163 0
1.4384634 1.1077659 -0.35521504 0
1.5561138 0.35897112 -0.35053483 0
1.6829513 -0.34821612 -0.35559174 0
1.8418376 -1.3416144 -0.34746313 0
2.4069314 -4.1421709 -0.37030721 0
1.4149628 1.098349 -0.34947699 0
1.5548429 0.36497143 -0.34997734 0
1.6794748 -0.34016699 -0.35517684 0
1.8343813 -1.3259199 -0.34796751 0
2.3829622 -4.0632854 -0.36989707 0
1.4150337 1.106739 -0.34886691 0
1.5250435 0.36416054 -0.34300846 0
1.6661259 -0.33141303 -0.35272548 0
1.8229203 -1.3074905 -0.34688628 0
2.3309207 -3.9429419 -0.36611581 0
1.4379504 1.1335887 -0.35426101 0
1.5473666 0.37577701 -0.34835127 0
1.6576476 -0.3225143 -0.35187149 0
1.8435037 -1.3120478 -0.3523123 0
2.3220935 -3.8953478 -0.36965427 0
1.4457614 1.147952 -0.35549942 0
1.5507725 0.38291579 -0.34886229 0
1.6731265 -0.31946859 -0.35522854 0
1.8157681 -1.2823079 -0.34809837 0
2.2738481 -3.7843189 -0.36529928 0
1.4226133 1.1380984 -0.34918228 0
1.5446882 0.38713914 -0.34779543 0
1.6596648 -0.31029803 -0.35334507 0
1.8080219 -1.2669313 -0.34808978 0
2.2448676 -3.7081769 -0.36399862 0
1.4683799 1.1835643 -0.35977212 0
1.5337814 0.3906709 -0.34538549 0
1.6559694 -0.30303106 -0.3526147 0
1.8004578 -1.2513508 -0.34766719 0
2.2042987 -3.6098039 -0.36111844 0
1.4564422 1.1831964 -0.3562609 0
1.5513049 0.40148357 -0.34909016 0
1.6471936 -0.29518986 -0.35173297 0
1.8006668 -1.2417331 -0.34917489 0
2.198967 -3.5715754 -0.36399764 0
1.452336 1.1887232 -0.3546232 0
1.5498698 0.40746817 -0.34853077 0
1.6434349 -0.28800774 -0.35099575 0
1.788656 -1.2238015 -0.34791347 0
2.1454988 -3.4576395 -0.35887215 0
1.4555324 1.200702 -0.35516268 0
1.5530729 0.4146924 -0.34931281 0
1.6492301 -0.28250059 -0.35260913 0
1.7764916 -1.2059431 -0.34699211 0
2.1420755 -3.4240465 -0.36117128 0
1.4702575 1.2219323 -0.35811904 0
1.5372931 0.41738516 -0.34557158 0
1.6453915 -0.27475369 -0.35245159 0
1.7811744 -1.1982538 -0.34961507 0
2.1490271 -3.4073191 -0.3659057 0
1.4544895 1.2183002 -0.35370162 0
1.5500773 0.42667136 -0.34819049 0
1.6317362 -0.26662219 -0.34992802 0
1.7644181 -1.1785011 -0.34707788 0
2.1179333 -3.3321846 -0.36349303 0
1.4654466 1.2362078 -0.3560285 0
1.5531341 0.43393505 -0.34924883 0
1.6471788 -0.26265597 -0.35332504 0
1.7807597 -1.1800004 -0.35173661 0
2.0841973 -3.2527111 -0.36109495 0
1.4686351 1.2481395 -0.35617247 0
1.5468719 0.43859556 -0.34762928 0
1.6431593 -0.25554925 -0.35315964 0
1.7685305 -1.1621492 -0.3503342 0
2.0898631 -3.2366261 -0.36554402 0
1.4754924 1.2633103 -0.35720333 0
1.540596 0.44321412 -0.34601307 0
1.648842 -0.24995263 -0.3547805 0
1.7480775 -1.1386881 -0.3476193 0
2.0525956 -3.1534851 -0.36164021 0
1.4970278 1.2917438 -0.36111808 0
1.5484411 0.45191589 -0.34727839 0
1.6448902 -0.24289624 -0.35403028 0
1.7437004 -1.1267556 -0.34778756 0
2.03936 -3.1081741 -0.36122814 0
1.4887604 1.2941597 -0.3588427 0
1.5468105 0.45789251 -0.34671533 0
1.6457496 -0.23656976 -0.35432047 0
1.7349659 -1.1125458 -0.3467482 0
2.0196962 -3.0549021 -0.36166182 0
1.4879905 1.3030958 -0.35766652 0
1.5404744 0.46245757 -0.34510326 0
1.6368986 -0.22888587 -0.35252473 0
1.7432712 -1.1080215 -0.34974104 0
2.0003185 -3.0016203 -0.36003408 0
1.4795197 1.3057495 -0.35505486 0
1.548157 0.47125164 -0.34663627 0
1.6375824 -0.22257408 -0.35339007 0
1.7300538 -1.0915827 -0.34783044 0
1.9744515 -2.9405105 -0.35852405 0
1.4823115 1.3179094 -0.35509497 0
1.5510658 0.47865218 -0.34740019 0
1.6383024 -0.21626844 -0.35396695 0
1.7337333 -1.0850406 -0.34997246 0
1.9849333 -2.9328365 -0.36346915 0
1.5034155 1.3465712 -0.35914952 0
1.5353321 0.48026118 -0.34369951 0
1.6196624 -0.20748353 -0.35006297 0
1.725439 -1.0698174 -0.34921432 0
1.95945 -2.8713696 -0.36168686 0
1.5025475 1.355276 -0.35861295 0
1.5477463 0.49008226 -0.3462669 0
1.6299319 -0.20272987 -0.35301924 0
1.728717 -1.0639297 -0.35098583 0
1.948994 -2.8358037 -0.36226904 0
1.5119914 1.3748418 -0.35960662 0
1.5411961 0.49512064 -0.34437639 0
1.6405696 -0.19678779 -0.35483214 0
1.716072 -1.0462619 -0.34933227 0
1.9346157 -2.7908163 -0.36170644 0
1.4894903 1.3634323 -0.35351199 0
1.5536145 0.50479996 -0.3469274 0
1.6264629 -0.18962669 -0.35254017 0
1.7028264 -1.0296441 -0.34729677 0
1.9132586 -2.7385154 -0.35996267 0
1.4771841 1.3626289 -0.35038459 0
1.5425447 0.50775963 -0.34399974 0
1.627118 -0.18337324 -0.35282597 0
1.6932508 -1.0162015 -0.34678599 0
1.9053496 -2.7070191 -0.36137116 0
1.5085829 1.4018617 -0.35645673 0
1.5453382 0.51526409 -0.34446728 0
1.6326078 -0.17764628 -0.35416579 0
1.6718885 -0.99387902 -0.34295514 0
1.8862844 -2.6591713 -0.3593595 0
1.4893167 1.3941655 -0.3509095 0
1.5341356 0.51808274 -0.34211579 0
1.6332163 -0.17136976 -0.35445243 0
1.6795545 -0.99012303 -0.34518459 0
1.8726058 -2.6194897 -0.35947338 0
1.5128545 1.4271381 -0.35587558 0
1.5415629 0.52719384 -0.34332994 0
1.6289383 -0.16459985 -0.35368326 0
1.6830833 -0.98351449 -0.34688586 0
1.8727694 -2.6004834 -0.36172464 0
1.5011452 1.4255298 -0.35274377 0
1.5396404 0.53314829 -0.34276125 0
1.6245713 -0.1578594 -0.35319728 0
1.6693797 -0.96731621 -0.3450658 0
1.844058 -2.5409248 -0.35881808 0
1.4997829 1.434727 -0.3510482 0
1.5471759 0.54181325 -0.34396157 0
1.6251042 -0.15161461 -0.35348213 0
1.6597368 -0.95400554 -0.34376159 0
1.8384751 -2.5137982 -0.35924089 0
1.5405856 1.4851302 -0.3603943 0
1.5450624 0.5483495 -0.34310317 0
1.6158787 -0.1444976 -0.35164863 0
1.6675149 -0.94959146 -0.34665498 0
1.8267893 -2.4787021 -0.35899234 0
1.517713 1.4738511 -0.35402709 0
1.5522705 0.55762792 -0.34457582 0
1.6212288 -0.1387033 -0.35299182 0
1.6537999 -0.93339008 -0.34442541 0
1.805531 -2.4320362 -0.35743174 0
1.5372456 1.5038061 -0.35755202 0
1.5458829 0.56143349 -0.34269226 0
1.6119481 -0.13167658 -0.35115403 0
1.665585 -0.93200886 -0.34754252 0
1.7904147 -2.3932965 -0.35587427 0
1.5284756 1.5062298 -0.35448492 0
1.5575688 0.57276505 -0.34488311 0
1.6171907 -0.12585574 -0.35278115 0
1.6731334 -0.92781472 -0.3504419 0
1.8108262 -2.4021749 -0.36243954 0
1.5336685 1.522467 -0.35504392 0
1.5601158 0.58051181 -0.34502891 0
1.6370897 -0.12108217 -0.35731804 0
1.6633801 -0.91445094 -0.34906453 0
1.7799491 -2.3441467 -0.35774687 0
1.5286068 1.5280732 -0.35278073 0
1.5536095 0.58427286 -0.34343475 0
1.613113 -0.11308277 -0.35228306 0
1.6493934 -0.89853173 -0.34675866 0
1.8063556 -2.3609066 -0.36499867 0
1.5441217 1.5549394 -0.35531873 0
1.5469458 0.58855659 -0.34155509 0
1.6184101 -0.10721097 -0.35334736 0
1.6437575 -0.88766438 -0.34657353 0
1.7692409 -2.2949193 -0.3599048 0
1.5450561 1.5684229 -0.3546139 0
1.5539823 0.59807432 -0.34270433 0
1.6284997 -0.10160049 -0.35576072 0
1.642606 -0.87891293 -0.34696218 0
1.7598989 -2.2639487 -0.35971078 0
1.5262502 1.5596442 -0.34952933 0
1.5472771 0.60232502 -0.34082708 0
1.6191242 -0.094775833 -0.35363042 0
1.6369181 -0.86816716 -0.34642491 0
1.7518768 -2.2382712 -0.35957581 0
1.5620658 1.6079913 -0.35667136 0
1.5634576 0.61523199 -0.34396893 0
1.6194144 -0.088554785 -0.35391352 0
1.6095735 -0.84576178 -0.34126207 0
1.7194891 -2.1811616 -0.3548114 0
1.5776038 1.6347982 -0.35860977 0
1.5658027 0.62310851 -0.34408942 0
1.6197426 -0.082336046 -0.35391352 0
1.6209254 -0.84487933 -0.34406388 0
1.7302853 -2.1783864 -0.35884404 0
1.5473765 1.6164105 -0.35080957 0
1.5453845 0.6218673 -0.33921623 0
1.6004672 -0.075196162 -0.34992912 0
1.6241291 -0.83791661 -0.34597787 0
1.7225318 -2.1523798 -0.35853291 0
1.5964398 1.6793592 -0.36077398 0
1.5657319 0.6370514 -0.34390965 0
1.6201419 -0.06988702 -0.35476264 0
1.6227448 -0.8293286 -0.34632012 0
1.6927532 -2.0993509 -0.35456058 0
1.5797737 1.675243 -0.35605508 0
1.5815675 0.65058374 -0.34700167 0
1.6252167 -0.063854933 -0.35611507 0
1.5992149 -0.80992472 -0.34228376 0
1.685298 -2.0730193 -0.35409963 0
1.5704995 1.6776854 -0.35288471 0
1.5431372 0.64139819 -0.3381725 0
1.6010537 -0.056469586 -0.35076803 0
1.6064885 -0.80587274 -0.34447634 0
1.6705883 -2.0396068 -0.35318246 0
1.5887402 1.7084917 -0.35575399 0
1.5814931 0.66447371 -0.34619975 0
1.6159043 -0.050781839 -0.35397625 0
1.6004758 -0.79552782 -0.34352985 0
1.6652011 -2.0178967 -0.35326687 0
1.5860724 1.7182086 -0.35405922 0
1.5701834 0.66682678 -0.34273291 0
1.6258522 -0.044846199 -0.35611507 0
1.5856843 -0.78059715 -0.34098873 0
1.6533052 -1.9885892 -0.35241225 0
1.580014 1.7242826 -0.3516103 0
1.5587114 0.66903085 -0.3401711 0
1.6015368 -0.038021982 -0.35104761 0
1.5970902 -0.77895296 -0.3444339 0
1.6535989 -1.9748787 -0.35420915 0
1.6171887 1.7778902 -0.35875738 0
1.5789036 0.68456167 -0.34418583 0
1.6163204 -0.032163769 -0.35425842 0
1.5998526 -0.77271003 -0.34567437 0
1.666973 -1.9760913 -0.35827902 0
1.6075976 1.7804124 -0.3555074 0
1.5677944 0.68625635 -0.34073129 0
1.616432 -0.025957324 -0.35425842 0
1.576081 -0.75377905 -0.34085977 0
1.6450993 -1.9357215 -0.35476226 0
1.5920237 1.7749624 -0.35081166 0
1.5653108 0.69234324 -0.33983517 0
1.6067522 -0.019631157 -0.35211787 0
1.5831831 -0.74971986 -0.34304026 0
1.6357994 -1.9105436 -0.35437763 0
1.6186502 1.8180104 -0.35554108 0
1.5717591 0.70242345 -0.34088126 0
1.6214675 -0.013584292 -0.35532868 0
1.5812072 -0.7417013 -0.34360361 0
1.632807 -1.8929605 -0.35533926 0
1.6050742 1.8173996 -0.35113373 0
1.5782784 0.71228844 -0.34191704 0
1.6068555 -0.0072917291 -0.35211787 0
1.5794308 -0.73348242 -0.34355029 0
1.6297497 -1.8754735 -0.35583049 0
1.6253504 1.8527044 -0.35471588 0
1.5757487 0.7184422 -0.34070808 0
1.6068717 -0.0011218082 -0.35211787 0
1.5729781 -0.72348911 -0.34282362 0
1.6129051 -1.8437047 -0.35343412 0
1.6350856 1.8776388 -0.3552357 0
1.5778503 0.72606367 -0.34076387 0
1.6165721 0.0045143324 -0.35454056 0
1.5753305 -0.71791947 -0.34373015 0
1.6128221 -1.8300312 -0.35498658 0
1.6254855 1.879824 -0.35236093 0
1.5796081 0.73423517 -0.34111845 0
1.6213025 0.010753042 -0.35617766 0
1.5778015 -0.71174169 -0.34524077 0
1.6061329 -1.8090309 -0.35463986 0
1.6224582 1.8896147 -0.34958565 0
1.5860608 0.74431586 -0.34151143 0
1.5970162 0.016724525 -0.34997734 0
1.5669267 -0.69960779 -0.34320524 0
1.6163905 -1.8059304 -0.35832644 0
1.6189706 1.8995954 -0.34766716 0
1.5789174 0.74837464 -0.33964002 0
1.6018239 0.022926388 -0.35104761 0
1.5558646 -0.68784046 -0.34115425 0
1.5956758 -1.7709341 -0.35455656 0
1.6640996 1.9657137 -0.35600731 0
1.5896614 0.76061487 -0.34127191 0
1.6114907 0.029254062 -0.35318813 0
1.5537848 -0.67980099 -0.3413552 0
1.5719122 -1.7317544 -0.3512021 0
1.6596595 1.9765036 -0.35353908 0
1.5913101 0.76892674 -0.34129721 0
1.601478 0.035224017 -0.35160679 0
1.5472237 -0.66986412 -0.34026489 0
1.5886143 -1.7361 -0.35589409 0
1.7231055 2.0659351 -0.36612028 0
1.5885596 0.77513552 -0.34006327 0
1.6062131 0.041499116 -0.35267878 0
1.5584033 -0.66793251 -0.34372291 0
1.5773646 -1.7123694 -0.35459393 0
1.7410849 2.1031148 -0.3681789 0
1.5902727 0.78320074 -0.34007975 0
1.6208107 0.04810454 -0.35532868 0
1.5382357 -0.6523087 -0.33963069 0
1.5738833 -1.6948861 -0.3547577 0
1.7399014 2.1174369 -0.36664554 0
1.5654788 0.77847314 -0.33414906 0
1.6010885 0.053673085 -0.35104761 0
1.5541182 -0.65201479 -0.34350115 0
1.5595337 -1.6671371 -0.35299882 0
0 0 0 0
1.6109715 0.80882555 -0.3432155 0
1.6203315 0.060547609 -0.35561168 0
1.5654931 -0.64972925 -0.34638578 0
1.5721557 -1.6683311 -0.35692775 0
0 0 0 0
1.6125382 0.81702596 -0.3432042 0
1.6200637 0.067334287 -0.35561168 0
1.5544372 -0.63752115 -0.34426218 0
1.5677991 -1.6515381 -0.35700491 0
0 0 0 0
1.6011399 0.81828707 -0.34008372 0
1.610184 0.072554812 -0.35290685 0
1.5563755 -0.63229501 -0.34514183 0
1.5360352 -1.606246 -0.3508139 0
0 0 0 0
1.6112436 0.83126873 -0.34192201 0
1.6195885 0.079211093 -0.35532868 0
1.5448805 -0.6207248 -0.34357613 0
1.565594 -1.6251888 -0.35902822 0
0 0 0 0
1.6127561 0.83954769 -0.34157938 0
1.6095178 0.084914632 -0.35318813 0
1.5334344 -0.60929775 -0.34140858 0
1.5578045 -1.6047249 -0.358228 0
0 0 0 0
1.6053809 0.84355873 -0.33939022 0
1.6141179 0.09137363 -0.35397625 0
1.5494784 -0.60817003 -0.34531945 0
1.5219977 -1.5563849 -0.35101834 0
0 0 0 0
1.6156206 0.85651046 -0.34023476 0
1.6285057 0.098462559 -0.35661501 0
1.5376298 -0.5976426 -0.34313631 0
1.5378238 -1.5610813 -0.35570118 0
0 0 0 0
1.6517967 0.88308907 -0.34748557 0
1.6233029 0.10440529 -0.35526341 0
1.5625902 -0.60044807 -0.3491039 0
1.5328004 -1.5446169 -0.35595661 0
0 0 0 0
1.6138384 0.87114364 -0.33890903 0
1.613143 0.10997306 -0.35312971 0
1.5464125 -0.58742696 -0.34588701 0
1.5242794 -1.5248114 -0.35460961 0
0 0 0 0
1.63228 0.88920891 -0.34215447 0
1.6176428 0.11652166 -0.35391352 0
1.5347991 -0.57628167 -0.3433893 0
1.522593 -1.5120001 -0.35523397 0
0 0 0 0
1.620754 0.89028043 -0.33905324 0
1.6171833 0.12273208 -0.35391352 0
1.536719 -0.57027978 -0.34481987 0
1.5175828 -1.4954954 -0.35501543 0
0 0 0 0
1.6259768 0.90166467 -0.33955878 0
1.6021525 0.12778044 -0.35043499 0
1.5389246 -0.5637756 -0.34567803 0
1.5197365 -1.48564 -0.35679042 0
0 0 0 0
1.6613451 0.9296363 -0.34631455 0
1.6259911 0.13596673 -0.35576072 0
1.5454096 -0.55973554 -0.3475706 0
1.5102385 -1.4665927 -0.35568386 0
0 0 0 0
1.6627488 0.9376756 -0.34587681 0
1.6206522 0.14178869 -0.35441166 0
1.5472397 -0.55429667 -0.34814432 0
1.5189284 -1.4642526 -0.35835809 0
0 0 0 0
1.6422387 0.93443859 -0.34099206 0
1.615292 0.14757161 -0.35306424 0
1.5445738 -0.54665893 -0.3479661 0
1.5133306 -1.4481927 -0.35803995 0
0 0 0 0
1.6604545 0.95287645 -0.34342745 0
1.6196386 0.15424182 -0.35384375 0
1.5465468 -0.54068404 -0.34853801 0
1.507933 -1.4319757 -0.35732743 0
0 0 0 0
1.6569905 0.95936501 -0.34209082 0
1.6287583 0.16142334 -0.35596892 0
1.5576831 -0.53787422 -0.35148174 0
1.5093135 -1.4228023 -0.35865301 0
0 0 0 0
1.653669 0.96555191 -0.34075406 0
1.603887 0.16517977 -0.35037455 0
1.5504915 -0.52813232 -0.35025349 0
1.4895066 -1.3928807 -0.3551814 0
0 0 0 0
1.6714674 0.98456955 -0.34310263 0
1.6131407 0.17239502 -0.35164863 0
1.5431238 -0.51901871 -0.34873074 0
1.4872003 -1.3805412 -0.35488227 0
0 0 0 0
1.668053 0.99081123 -0.3417483 0
1.6269758 0.18019466 -0.3551119 0
1.5449319 -0.51303214 -0.34958315 0
1.5208997 -1.401481 -0.36430019 0
0 0 0 0
1.6646146 0.99704057 -0.34039372 0
1.6020598 0.18366471 -0.34953028 0
1.5326366 -0.50271988 -0.34755993 0
1.5041876 -1.3754389 -0.36123055 0
0 0 0 0
1.6862711 1.0188301 -0.34420204 0
1.6305199 0.19327331 -0.35559881 0
1.5435652 -0.50034356 -0.35023275 0
1.4902415 -1.35364 -0.3589763 0
0 0 0 0
1.6872958 1.0271024 -0.3436836 0
1.6300198 0.19898623 -0.35473904 0
1.5406456 -0.49286807 -0.35002485 0
1.484274 -1.3378541 -0.35773838 0
0 0 0 0
1.7126167 1.0523731 -0.34792906 0
1.6097165 0.20335448 -0.35079914 0
1.5330902 -0.4839699 -0.34847111 0
1.4819691 -1.3250333 -0.35840511 0
0 0 0 0
1.7048681 1.0562391 -0.34497625 0
1.633339 0.21271349 -0.35521987 0
1.5442606 -0.48039231 -0.35143632 0
1.4829483 -1.3161602 -0.35890231 0
0 0 0 0
1.7219003 1.0759628 -0.34779686 0
1.6277273 0.21834189 -0.35387918 0
1.5413057 -0.47298992 -0.35093737 0
1.4874322 -1.3104253 -0.36132443 0
0 0 0 0
1.7015198 1.071919 -0.3426654 0
1.6124117 0.22259338 -0.35043547 0
1.5429932 -0.46703276 -0.35150012 0
1.4811068 -1.2947856 -0.36035159 0
0 0 0 0
1.7185874 1.0914904 -0.34544349 0
1.6309644 0.23153977 -0.35435739 0
1.5445985 -0.46105194 -0.35234419 0
1.4521315 -1.2600955 -0.35425726 0
0 0 0 0
1.7274269 1.1055853 -0.34652102 0
1.6204503 0.2363981 -0.35196859 0
1.5415537 -0.45370394 -0.35183743 0
1.4714057 -1.2673968 -0.3595762 0
0 0 0 0
1.7152797 1.1066939 -0.34343004 0
1.6294434 0.24410346 -0.3529197 0
1.5337856 -0.44502538 -0.35025609 0
1.4461281 -1.2359834 -0.3539539 0
0 0 0 0
1.7402028 1.1322612 -0.34742519 0
1.6284333 0.25034893 -0.35320726 0
1.5400606 -0.44044194 -0.35188636 0
1.4615605 -1.2399321 -0.35903966 0
0 0 0 0
1.7486156 1.146879 -0.34844106 0
1.6323503 0.25737083 -0.35396695 0
1.5368038 -0.43313396 -0.35192832 0
1.4698297 -1.237273 -0.361637 0
0 0 0 0
1.7406393 1.1507938 -0.34507021 0
1.6315328 0.26366621 -0.35310164 0
1.5477461 -0.42980984 -0.3546415 0
1.4741117 -1.2316747 -0.36331347 0
0 0 0 0
1.7569326 1.1712853 -0.34767497 0
1.6354541 0.27074769 -0.35356769 0
1.544616 -0.42255911 -0.35384306 0
1.4519045 -1.2041107 -0.35845536 0
0 0 0 0
1.76107 1.1833899 -0.3474482 0
1.6345599 0.27646512 -0.35327834 0
1.5270501 -0.41202977 -0.35035613 0
1.444898 -1.1889658 -0.35728797 0
0 0 0 0
1.7488489 1.184505 -0.34362042 0
1.6141746 0.27997702 -0.34882396 0
1.5239853 -0.40436208 -0.34954995 0
1.4566103 -1.1896768 -0.36080486 0
0 0 0 0
1.793447 1.2247832 -0.35135955 0
1.6374066 0.29048726 -0.35286939 0
1.5442989 -0.40341121 -0.35443595 0
1.4422097 -1.1678784 -0.35803819 0
0 0 0 0
1.7850814 1.2286881 -0.3490482 0
1.6315269 0.29591042 -0.35154215 0
1.5410495 -0.39624768 -0.35362977 0
1.4385843 -1.1562381 -0.35775456 0
0 0 0 0
1.780915 1.2354648 -0.34640038 0
1.6401186 0.30397803 -0.3530339 0
1.5282457 -0.38670561 -0.35092577 0
1.4462522 -1.1541147 -0.3599979 0
0 0 0 0
1.8049006 1.2619281 -0.35038641 0
1.6439818 0.31093076 -0.35319316 0
1.5485427 -0.38552096 -0.35582867 0
1.4544249 -1.1511105 -0.36289537 0
0 0 0 0
1.8050433 1.2709603 -0.34886041 0
1.6332893 0.31540895 -0.35054708 0
1.5451512 -0.37838191 -0.35529584 0
1.4466612 -1.1367756 -0.36129981 0
0 0 0 0
1.7923418 1.272339 -0.34538153 0
1.6466404 0.32395345 -0.35334724 0
1.5322406 -0.36898997 -0.3525764 0
1.4234916 -1.1101543 -0.35613102 0
0 0 0 0
1.803982 1.2905719 -0.34655055 0
1.6501869 0.33183697 -0.35378987 0
1.5477695 -0.36644772 -0.35640633 0
1.4511132 -1.1219524 -0.36385852 0
0 0 0 0
1.8315464 1.320467 -0.35075492 0
1.6684376 0.34157073 -0.35671487 0
1.5300971 -0.35606474 -0.35230747 0
1.4429559 -1.1080194 -0.36221007 0
0 0 0 0
1.8066751 1.3131081 -0.34535816 0
1.6477709 0.34453741 -0.35290852 0
1.5360888 -0.35124701 -0.35395163 0
1.4356289 -1.0928644 -0.36085579 0
0 0 0 0
1.8463826 1.3518426 -0.35016882 0
1.6659453 0.35501939 -0.35522854 0
1.5469459 -0.34748468 -0.3561433 0
1.4200532 -1.0724202 -0.35719529 0
0 0 0 0
1.8373973 1.3561317 -0.34781826 0
1.6742581 0.36351705 -0.35667208 0
1.5386201 -0.33941382 -0.35450166 0
1.4198023 -1.0640814 -0.35775977 0
0 0 0 0
1.8405911 1.3689382 -0.34732234 0
1.6586317 0.36679876 -0.35302195 0
1.5255494 -0.3303929 -0.35148147 0
1.4118783 -1.0497007 -0.35602325 0
0 0 0 0
1.8675528 1.3996515 -0.35045958 0
1.6765624 0.37721476 -0.35619164 0
1.5315782 -0.32554698 -0.35257986 0
1.427294 -1.0530611 -0.36054638 0
0 0 0 0
1.8784388 1.4185916 -0.35137552 0
1.6847682 0.38586339 -0.35761791 0
1.5374711 -0.32063437 -0.3542265 0
1.4429322 -1.0560668 -0.36509487 0
0 0 0 0
1.8656949 1.4197354 -0.34703514 0
1.6501328 0.38460514 -0.34934354 0
1.5387515 -0.31474093 -0.35395238 0
1.3913273 -1.0101165 -0.35199153 0
0 0 0 0
1.8803946 1.4418349 -0.34821466 0
1.6870052 0.40003487 -0.35621053 0
1.5398811 -0.30853716 -0.35450062 0
1.4186127 -1.022007 -0.35953441 0
0 0 0 0
1.8910939 1.4610761 -0.34820312 0
1.685698 0.40656775 -0.35500002 0
1.5459013 -0.303574 -0.35532659 0
1.4144045 -1.0107483 -0.3584305 0
0 0 0 0
1.8879741 1.4576138 -0.34498462 0
1.6910346 0.40691805 -0.35418165 0
1.5559008 -0.30553764 -0.35558981 0
1.4228568 -1.0164133 -0.35861889 0
0 0 0 0
1.9046404 1.4598981 -0.34880731 0
1.7210493 0.40779045 -0.3601678 0
1.5597436 -0.31251693 -0.35557348 0
1.4391248 -1.0364031 -0.36178458 0
0 0 0 0
1.8940818 1.440815 -0.34717664 0
1.6988817 0.39502957 -0.35517934 0
1.553933 -0.31756368 -0.35365236 0
1.4316567 -1.0390146 -0.35893294 0
0 0 0 0
1.8875594 1.4244452 -0.34666225 0
1.7145783 0.39237589 -0.35817242 0
1.5672178 -0.32655254 -0.35607865 0
1.4439658 -1.0560492 -0.36103687 0
0 0 0 0
1.8964841 1.4203007 -0.34945533 0
1.7065243 0.3830173 -0.35678756 0
1.5660738 -0.33259356 -0.35551983 0
1.4440987 -1.0646814 -0.36046046 0
0 0 0 0
1.8896204 1.4043796 -0.34849942 0
1.6982832 0.3749457 -0.35478875 0
1.5697383 -0.3396762 -0.35576284 0
1.4602696 -1.0848874 -0.36284509 0
0 0 0 0
1.8984897 1.4001988 -0.35129032 0
1.7188045 0.37224674 -0.35940027 0
1.5590082 -0.34362602 -0.35304293 0
1.4559653 -1.0911841 -0.36125743 0
0 0 0 0
1.8916316 1.3839581 -0.35112646 0
1.7153683 0.36461276 -0.35870522 0
1.5722102 -0.35287145 -0.35515702 0
1.4642854 -1.1050218 -0.36289808 0
0 0 0 0
1.8644841 1.3536328 -0.34680888 0
1.6831877 0.35102308 -0.35169145 0
1.5899407 -0.36385298 -0.35860798 0
1.4560919 -1.1084417 -0.35969228 0
0 0 0 0
1.8691868 1.3466127 -0.34881943 0
1.717872 0.3520036 -0.35931739 0
1.5649985 -0.36389863 -0.35267878 0
1.4720789 -1.1283418 -0.36321908 0
0 0 0 0
1.8782167 1.3421934 -0.35077673 0
1.71927 0.3447924 -0.35962343 0
1.5636998 -0.37050757 -0.35155696 0
1.4909862 -1.1527809 -0.3666822 0
0 0 0 0
1.8546499 1.3151102 -0.34750304 0
1.6916285 0.3331109 -0.35359621 0
1.5672055 -0.37712076 -0.35234419 0
1.4715632 -1.1464058 -0.36090934 0
0 0 0 0
1.8632509 1.3109726 -0.35024679 0
1.7216895 0.33216843 -0.35992947 0
1.5754753 -0.38551638 -0.35334736 0
1.4867054 -1.1674029 -0.36400869 0
0 0 0 0
1.835652 1.2810448 -0.34573153 0
1.7133168 0.32311517 -0.35852733 0
1.5739663 -0.39214209 -0.35278115 0
1.4866158 -1.1761662 -0.36263853 0
0 0 0 0
1.8400861 1.2741359 -0.34768486 0
1.6903427 0.31206605 -0.35409185 0
1.5821813 -0.40005961 -0.35433668 0
1.4863825 -1.1848655 -0.36191934 0
0 0 0 0
1.8404213 1.2644135 -0.34886605 0
1.6961796 0.30702499 -0.35540152 0
1.5760204 -0.40494648 -0.3527078 0
1.508875 -1.2122997 -0.3667767 0
0 0 0 0
1.8410797 1.2544874 -0.34887189 0
1.6973284 0.29989573 -0.3560032 0
1.5698199 -0.41037065 -0.35051596 0
1.5085384 -1.2211543 -0.36567536 0
0 0 0 0
1.8327043 1.2399012 -0.34848237 0
1.688776 0.2923094 -0.35368133 0
1.5826095 -0.41962129 -0.35339749 0
1.4888538 -1.2147123 -0.36029562 0
0 0 0 0
1.8329333 1.2302874 -0.3492457 0
1.7044098 0.28766739 -0.35701457 0
1.5715774 -0.42374986 -0.35043547 0
1.499822 -1.2328447 -0.3622874 0
0 0 0 0
1.8337047 1.219695 -0.35038641 0
1.7101607 0.28219536 -0.35863099 0
1.5889758 -0.4349927 -0.35378233 0
1.5032061 -1.2448865 -0.36173752 0
0 0 0 0
1.8210548 1.2025893 -0.34876758 0
1.6870008 0.2717239 -0.35386384 0
1.577992 -0.4385058 -0.35111105 0
1.5213554 -1.2697964 -0.36512959 0
0 0 0 0
1.8255059 1.1954877 -0.34991017 0
1.7026035 0.26753402 -0.35660481 0
1.5813159 -0.44567928 -0.35101229 0
1.5244626 -1.2818987 -0.36520362 0
0 0 0 0
1.8213909 1.183277 -0.34984329 0
1.6889766 0.25875142 -0.35416207 0
1.5797695 -0.45179829 -0.35015199 0
1.5083872 -1.2787528 -0.36008272 0
0 0 0 0
1.7881194 1.1523641 -0.34454396 0
1.6802123 0.25080961 -0.352429 0
1.5876518 -0.46065459 -0.35108221 0
1.5186665 -1.2975221 -0.36192265 0
0 0 0 0
1.7922258 1.1452949 -0.34677145 0
1.6956362 0.24645989 -0.35577497 0
1.5858713 -0.46674731 -0.35108221 0
1.5253756 -1.3129566 -0.36248952 0
0 0 0 0
1.7795366 1.1280216 -0.34502417 0
1.6916612 0.23925309 -0.35505667 0
1.5889893 -0.47430229 -0.35096332 0
1.5282284 -1.3251941 -0.36249706 0
0 0 0 0
1.7795242 1.1184586 -0.34531665 0
1.6827259 0.23200098 -0.35331842 0
1.5919558 -0.48185274 -0.35141802 0
1.5275861 -1.3340074 -0.36125547 0
0 0 0 0
1.7917795 1.1170208 -0.34841204 0
1.6982216 0.22749621 -0.35607404 0
1.5856504 -0.48659828 -0.34922659 0
1.5524937 -1.3658205 -0.36646575 0
0 0 0 0
1.7578951 1.0869701 -0.34252861 0
1.6796796 0.2178542 -0.35230023 0
1.5839449 -0.49273741 -0.34835809 0
1.5547006 -1.3788726 -0.36567226 0
0 0 0 0
1.7785677 1.0903348 -0.34798339 0
1.6803205 0.21138005 -0.35318702 0
1.5868242 -0.50032371 -0.34880492 0
1.5572666 -1.3913791 -0.36521864 0
0 0 0 0
1.7781823 1.0811517 -0.34825042 0
1.6908989 0.2061186 -0.35493127 0
1.5852114 -0.50621033 -0.34764326 0
1.5558095 -1.4008573 -0.36425319 0
0 0 0 0
1.7820072 1.0741273 -0.35042951 0
1.6721723 0.19732277 -0.35114545 0
1.5926272 -0.51532561 -0.34939608 0
1.5472504 -1.403453 -0.36157331 0
0 0 0 0
1.7687955 1.0573447 -0.34854665 0
1.6728568 0.19089371 -0.35143933 0
1.5862166 -0.51998806 -0.34720916 0
1.5424211 -1.4094117 -0.35902095 0
0 0 0 0
1.7638904 1.0460727 -0.34759486 0
1.6783166 0.18558437 -0.35275567 0
1.5936153 -0.52919871 -0.34865946 0
1.555402 -1.4322708 -0.36104068 0
0 0 0 0
1.7423159 1.0238464 -0.34434512 0
1.6887517 0.17958121 -0.35509706 0
1.5917445 -0.53537196 -0.3477802 0
1.5539862 -1.441528 -0.36003265 0
0 0 0 0
1.7627548 1.0275959 -0.348773 0
1.6796299 0.17209159 -0.35334507 0
1.5897919 -0.54151893 -0.34719396 0
1.5490124 -1.4475132 -0.35744274 0
0 0 0 0
1.7705644 1.0234722 -0.35104328 0
1.7045679 0.16803548 -0.35876498 0
1.6065056 -0.55410528 -0.34976003 0
1.5546948 -1.4635341 -0.35807341 0
0 0 0 0
1.7613358 1.0091348 -0.35063156 0
1.7051381 0.16148327 -0.35906392 0
1.5999551 -0.55841601 -0.34816056 0
1.5564914 -1.4765389 -0.35748082 0
0 0 0 0
1.7391084 0.98795104 -0.34692171 0
1.6764508 0.15286401 -0.35290852 0
1.5933521 -0.56298399 -0.34626952 0
1.5512941 -1.4824487 -0.35560846 0
0 0 0 0
1.7512622 0.98598027 -0.35003385 0
1.7013388 0.14854863 -0.35833609 0
1.6005745 -0.57245839 -0.3473869 0
1.5959234 -1.5363281 -0.36434716 0
0 0 0 0
1.7503496 0.97703493 -0.35057542 0
1.6921309 0.14060523 -0.35657895 0
1.5984786 -0.57864112 -0.3467935 0
1.5758513 -1.5292408 -0.35880199 0
0 0 0 0
1.7108859 0.94640869 -0.34264433 0
1.663466 0.13237834 -0.34983084 0
1.5827256 -0.57982183 -0.34232447 0
1.5746148 -1.5382124 -0.35691926 0
0 0 0 0
1.7312973 0.94942909 -0.34816459 0
1.6882194 0.12723416 -0.35584682 0
1.5944403 -0.59106714 -0.34441954 0
1.5827616 -1.558637 -0.35779428 0
0 0 0 0
1.7128141 0.93153101 -0.34484428 0
1.6788921 0.12063902 -0.35378987 0
1.6015536 -0.60038984 -0.34580764 0
1.581038 -1.5678478 -0.35664642 0
0 0 0 0
1.7376711 0.93681347 -0.35057664 0
1.6890247 0.11514615 -0.35614231 0
1.6178507 -0.61359465 -0.34826121 0
1.5930115 -1.5913442 -0.3582426 0
0 0 0 0
1.6976218 0.90682638 -0.34317786 0
1.6845095 0.10834189 -0.3554076 0
1.6018096 -0.61455637 -0.34500208 0
1.6013125 -1.6114055 -0.35940275 0
0 0 0 0
1.7053356 0.90254766 -0.34472904 0
1.6801527 0.10158522 -0.35378987 0
1.61343 -0.62613225 -0.34644905 0
1.6298597 -1.653354 -0.3639746 0
0 0 0 0
1.6955479 0.88867313 -0.34409571 0
1.685263 0.094810948 -0.35570219 0
1.602108 -0.62850446 -0.34388548 0
1.6136882 -1.6489952 -0.3592355 0
0 0 0 0
1.7115784 0.88947314 -0.3477594 0
1.680698 0.088669941 -0.35467115 0
1.6180818 -0.64195096 -0.34689298 0
1.6147373 -1.6622113 -0.35875177 0
0 0 0 0
1.6752448 0.86280775 -0.34109077 0
1.6762625 0.081982918 -0.35305437 0
1.6066705 -0.64457482 -0.34403229 0
1.6226593 -1.6826622 -0.35895586 0
1.7770848 2.2063022 -0.35387114 0
1.687097 0.86073178 -0.34419423 0
1.6765296 0.074957952 -0.35334724 0
1.6180969 -0.65638316 -0.3454324 0
1.6201582 -1.6924393 -0.35726142 0
1.7907127 2.2074046 -0.35907972 0
1.6812462 0.84999526 -0.34372151 0
1.6864343 0.069503143 -0.35599679 0
1.6203862 -0.66423845 -0.34548581 0
1.6411434 -1.7275918 -0.36079603 0
1.7915092 2.1934788 -0.36079234 0
1.6799387 0.8412506 -0.34380788 0
1.6915778 0.063209899 -0.35702869 0
1.6043942 -0.66488987 -0.34167325 0
1.6452355 -1.7446609 -0.36053064 0
1.7614819 2.1406515 -0.35611326 0
1.6606624 0.82399881 -0.34124932 0
1.6672983 0.055892628 -0.35216045 0
1.6246212 -0.68059343 -0.34557691 0
1.649226 -1.7617848 -0.36023375 0
1.7690771 2.1338928 -0.35901612 0
1.6857178 0.82837993 -0.34675866 0
1.6821709 0.049925663 -0.35525864 0
1.635718 -0.69263709 -0.34753472 0
1.6497897 -1.7753851 -0.35874942 0
1.7384655 2.0813949 -0.35462263 0
1.6799356 0.81754535 -0.34559536 0
1.6727071 0.042632826 -0.35260913 0
1.6379589 -0.70067686 -0.34694019 0
1.6502336 -1.7889675 -0.35766518 0
1.6947367 2.0139911 -0.34746587 0
1.6602288 0.80115652 -0.34265688 0
1.6678315 0.036683444 -0.35216045 0
1.635312 -0.706985 -0.34662926 0
1.6539416 -1.8062258 -0.35728157 0
1.6986263 2.00366 -0.35002095 0
1.658918 0.79197425 -0.34302655 0
1.6777428 0.030456766 -0.3542259 0
1.6418028 -0.71728599 -0.34728834 0
1.6642032 -1.8308601 -0.35829973 0
1.709018 2.001003 -0.35251859 0
1.648562 0.77927166 -0.34059322 0
1.677971 0.024016257 -0.35364014 0
1.621473 -0.71549284 -0.34193593 0
1.6677201 -1.8482946 -0.35740829 0
1.696628 1.9718157 -0.35216773 0
1.6466327 0.7709887 -0.34157938 0
1.6730353 0.017520625 -0.35319316 0
1.6368146 -0.72978401 -0.34478638 0
1.6842595 -1.8804364 -0.36017936 0
1.6906211 1.9503304 -0.35218763 0
1.6449606 0.76251864 -0.34160557 0
1.6779243 0.010542848 -0.35451877 0
1.6431192 -0.74017119 -0.34573206 0
1.6875156 -1.8980238 -0.3591955 0
1.6864308 1.9338731 -0.35239902 0
1.6474495 0.75669724 -0.34255487 0
1.663275 0.0046447515 -0.35141802 0
1.6404296 -0.74654979 -0.34478843 0
1.6873485 -1.9119021 -0.35792568 0
1.6644641 1.8932863 -0.34935635 0
1.6455767 0.74854553 -0.34257317 0
1.668234 -0.0017469713 -0.35216045 0
1.6423635 -0.75470835 -0.34446612 0
1.7028223 -1.9451181 -0.35918146 0
1.6704493 1.8874353 -0.35243595 0
1.6479065 0.74267375 -0.34415069 0
1.6877862 -0.0076589836 -0.35629135 0
1.6755322 -0.77704537 -0.35098755 0
1.7036693 -1.957776 -0.35919878 0
1.6639296 1.8662417 -0.35228482 0
1.6416837 0.73195487 -0.34353524 0
1.6779554 -0.014643295 -0.3542259 0
1.6724288 -0.78413492 -0.35002044 0
1.7220176 -1.9949764 -0.3610034 0
1.6705111 1.8598551 -0.35490295 0
1.639572 0.72416312 -0.34353516 0
1.6827786 -0.021147532 -0.35525864 0
1.6564416 -0.78405768 -0.34594837 0
1.7343216 -2.0241828 -0.36181858 0
1.6631407 1.8393431 -0.35468885 0
1.6601719 0.72565627 -0.34824866 0
1.6875861 -0.027099947 -0.35629135 0
1.6805716 -0.80267197 -0.34988809 0
1.7406499 -2.0452566 -0.36216512 0
1.6568828 1.8177011 -0.35486215 0
1.6447536 0.7114076 -0.34541193 0
1.6775634 -0.033382472 -0.35481164 0
1.6684533 -0.80548429 -0.34739503 0
1.7423003 -2.063925 -0.36087009 0
1.6364667 1.7821398 -0.35210636 0
1.6381578 0.70143855 -0.34445238 0
1.6725324 -0.039707486 -0.3537772 0
1.6745987 -0.81603283 -0.34761247 0
1.750883 -2.089582 -0.36132616 0
1.6421585 1.776477 -0.35421762 0
1.6451371 0.69696414 -0.34664869 0
1.6823336 -0.046404134 -0.35496491 0
1.6895485 -0.83062851 -0.35029545 0
1.7434936 -2.096323 -0.3579953 0
1.6489801 1.7695526 -0.357173 0
1.633943 0.68483377 -0.3453379 0
1.6868899 -0.053602077 -0.35658592 0
1.682016 -0.8353259 -0.34806985 0
1.7928923 -2.1718614 -0.36627102 0
1.6207886 1.7277764 -0.35193631 0
1.6272095 0.67501062 -0.34434715 0
1.6671368 -0.058800355 -0.35245159 0
1.6790129 -0.84188688 -0.34675866 0
1.7883053 -2.1825495 -0.36396128 0
1.6234596 1.7179612 -0.353677 0
1.6294445 0.66928077 -0.34496203 0
1.6668987 -0.065201253 -0.35245159 0
1.6981659 -0.85892159 -0.350301 0
1.7934349 -2.2044618 -0.36354408 0
1.6464908 1.7295899 -0.36029428 0
1.6365561 0.66420382 -0.34715608 0
1.6764476 -0.072608985 -0.3542259 0
1.6993014 -0.86807996 -0.34987408 0
1.8073945 -2.2383294 -0.36497277 0
1.6080781 1.6768883 -0.35303009 0
1.6207153 0.65053779 -0.34421325 0
