# .PCD v0.7 - Point Cloud Data file format
VERSION 0.7
FIELDS x y z intensity
SIZE 4 4 4 4
TYPE F F F F
COUNT 1 1 1 1
WIDTH 1583
HEIGHT 1
VIEWPOINT 0 0 0 1 0 0 0
POINTS 1583
DATA ascii
30 13 8.181509 2.9487913
-1.8661038 48 14 9.153203
3.311763 -1.8514007 44 15
10.390836 3.8300498 -1.8371005 41
16 12.266496 4.5414243 -1.8566871
17 17 13.360571 4.9561224
-1.682279 30 18 14.093021
5.229743 -1.4204171 32 19
14.903152 5.5323763 -1.1293411 28
20 15.546402 5.7739625 -0.79069424
29 21 16.404476 6.093699
-0.42339912 18 22 17.293974
6.4246945 -0.016953642 27 23
29.895235 11.200715 0.71367192 23
24 29.93335 11.203131 1.4638448
16 25 30.345325 11.347069
2.2393262 21 26 29.048132
10.844478 2.8686841 17 27
30.493948 11.384967 3.7818985 25
28 28.650875 10.677032 4.2750783
11 29 30.17009 11.238432
5.2668014 11 30 11.512533
4.2007041 2.3045919 30 31
0.4302375 0.023581699 -0.26984566 48
0 3.0535505 1.0070097 -1.8329887
11 1 3.2431123 1.0774713
-1.8425529 15 2 3.4704165
1.1612756 -1.8619074 13 3
3.728487 1.2571186 -1.8861459 20
4 3.9879253 1.3525854 -1.897733
14 5 4.2722635 1.457164
-1.9074869 18 6 4.6377449
1.5926839 -1.9360991 21 7
5.0435929 1.7420907 -1.9627812 27
8 5.530755 1.9225949 -1.9985936
43 9 6.0692272 2.1208458
-2.0256701 36 10 6.7069445
2.3554771 -2.0574462 28 11
7.2417374 2.552798 -2.0286896 34
12 7.4383574 2.622957 -1.8865176
28 13 8.2572479 2.9252048
-1.8794558 44 14 9.2220201
3.2793972 -1.861436 42 15
10.397442 3.7625046 -1.8341577 41
16 12.306138 4.4760051 -1.858637
16 17 13.409027 4.8841991
-1.6846038 28 18 14.174821
5.1653304 -1.4254671 31 19
14.937318 5.4476318 -1.1294698 26
20 15.547422 5.6695051 -0.78897387
28 21 16.419315 5.9919443
-0.42285547 22 22 17.28072
6.3066254 -0.016892869 25 23
29.849394 10.982005 0.71101266 23
24 29.739584 10.935094 1.4512471
21 25 30.386408 11.163833
2.2375596 21 26 30.787003
11.306664 3.0341983 21 27
29.041754 10.646319 3.5939806 28
28 28.764454 10.531864 4.2828479
15 29 11.810777 4.2407646
2.0561082 6 30 11.657069
4.1791453 2.3285625 22 31
0.44400942 0.026196199 -0.27801698 46
0 3.0712452 0.99445891 -1.8398525
10 1 3.2600012 1.0627371
-1.8481917 9 2 3.4725502
1.1402934 -1.8592068 14 3
3.7329848 1.2347096 -1.8844266 20
4 3.9998095 1.3311628 -1.8993582
14 5 4.2865729 1.4347533
-1.9097997 18 6 4.6440754
1.5650156 -1.9346354 21 7
5.0560522 1.7140218 -1.9634613 27
8 5.54638 1.8914167 -1.9998711
42 9 6.0896487 2.0877135
-2.0280538 36 10 6.7320156
2.3211198 -2.0607574 26 11
7.2466149 2.5061812 -2.0256336 34
12 7.5185347 2.6024396 -1.9027076
32 13 8.3143501 2.8891528
-1.8882153 52 14 9.1811132
3.2028375 -1.8491518 44 15
10.452352 3.7170773 -1.8400151 34
16 12.339843 4.4082456 -1.8597459
18 17 13.470322 4.8220658
-1.6887975 31 18 14.086389
5.0433092 -1.4136429 27 19
14.909199 5.3399563 -1.1249379 29
20 15.574877 5.5783639 -0.78867519
28 21 16.514309 5.9198351
-0.42438135 24 22 17.278025
6.1930742 -0.016842412 30 23
29.884556 10.800281 0.71036661 23
24 30.085989 10.862109 1.4649915
16 25 30.713192 11.085266
2.2568781 5 26 29.943073
10.791975 2.9445744 19 27
29.379383 10.574557 3.6279035 7
28 28.659548 10.300702 4.2579727
7 29 0.0068433904 -0.13510559
-0.0011488928 46 30 11.538289
4.0579863 2.2998204 32 31
0.43526629 0.020197973 -0.27188548 48
0 3.0797501 0.97657156 -1.8408301
8 1 3.2619925 1.041883
-1.8453659 13 2 3.4869463
1.1217778 -1.862798 14 3
3.7478414 1.2152603 -1.8878516 20
4 4.0084476 1.3077538 -1.8993535
14 5 4.300981 1.4115002
-1.9121118 18 6 4.6645498
1.5415221 -1.9390047 21 7
5.0704112 1.6855931 -1.9648267 28
8 5.5650301 1.8623201 -2.0024323
45 9 6.1023278 2.0529544
-2.0280473 38 10 6.7554197
2.2847574 -2.0635145 26 11
7.2470446 2.4595692 -2.0215602 60
12 7.5213327 2.5548649 -1.8994608
34 13 8.360508 2.8536041
-1.8948866 52 14 9.2371397
3.1635211 -1.8565824 41 15
10.399501 3.6260786 -1.826642 52
16 12.379517 4.3401494 -1.8616943
17 17 13.483462 4.7340961
-1.6866825 29 18 14.218849
4.9941134 -1.4237547 29 19
14.931941 5.2485375 -1.1242182 33
20 15.597099 5.482245 -0.78809202
28 21 16.559275 5.825654
-0.4246074 25 22 17.286903
6.0808692 -0.016800856 26 23
30.178308 10.706004 0.71584761 23
24 30.212568 10.712356 1.4681275
16 25 30.57991 10.832148
2.2422965 21 26 29.842207
10.561616 2.9285855 18 27
29.82753 10.54458 3.6756651 7
28 28.761873 10.151591 4.2643614
15 29 0.0068606259 -0.13491336
-0.0011478101 150 30 11.589909
4.0018334 2.3053615 8 31
0.43934834 0.019224601 -0.27392653 47
0 3.0989783 0.96435446 -1.8486747
5 1 3.2668533 1.0233802
-1.8444211 14 2 3.493856
1.1026515 -1.8627928 14 3
3.7538104 1.1933448 -1.8869896 20
4 4.0198383 1.2868793 -1.9009786
15 5 4.3077602 1.3871678
-1.9113339 18 6 4.6740661
1.5149338 -1.9389992 21 7
5.0875597 1.6600817 -1.9675634 27
8 5.5764294 1.8305825 -2.0024264
45 9 6.1219931 2.0206845
-2.0304298 36 10 6.7724018
2.2485921 -2.0646129 27 11
7.2509212 2.4143212 -2.0185039 63
12 7.5526552 2.5189831 -1.9036174
30 13 8.3775377 2.8057616
-1.8948781 48 14 9.2707548
3.1159155 -1.8595483 46 15
10.345881 3.5418754 -1.8135949 57
16 12.419194 4.276648 -1.8639232
18 17 13.472938 4.6458483
-1.6819969 29 18 14.243414
4.913754 -1.4233661 28 19
15.016196 5.1848488 -1.1282991 30
20 15.656417 5.4055824 -0.78950036
32 21 16.570597 5.722703
-0.42401424 22 22 17.342003
5.9920568 -0.016803639 23 23
33.358624 11.639679 0.78988481 15
24 33.347504 11.622597 1.6173341
7 25 0.0068219155 -0.13469672
-0.0011461384 3 26 29.837404
10.367175 2.9221692 18 27
29.715963 10.312713 3.6544757 22
28 28.719641 9.9567204 4.2497249
14 29 11.514487 3.9052899
1.9919528 48 30 11.557799
3.9159298 2.2943139 12 31
0.43857682 0.016361177 -0.27290303 48
0 3.1216967 0.95255369 -1.858482
4 1 3.2784047 1.0065683
-1.8472381 15 2 3.5042815
1.0839963 -1.8645862 14 3
3.7527938 1.1690694 -1.8826983 19
4 4.0298681 1.263932 -1.9017882
14 5 4.3286314 1.3669009
-1.9167354 16 6 4.6870084
1.4895202 -1.9404519 21 7
5.1034231 1.6320651 -1.9696141 27
8 5.5911765 1.7999868 -2.0037036
43 9 6.141449 1.9882394
-2.0328124 38 10 6.7900577
2.2100024 -2.0657117 26 11
7.2507987 2.3678169 -2.0144308 63
12 7.5976768 2.4846649 -1.9110137
44 13 8.4077311 2.7608461
-1.8977916 44 14 9.2768087
3.0567355 -1.856935 35 15
10.448852 3.5112801 -1.8279253 55
16 12.456258 4.2072921 -1.8655905
18 17 13.509536 4.5718994
-1.683152 31 18 14.29285
4.8393378 -1.4254143 28 19
15.024784 5.0882783 -1.12659 29
20 15.659614 5.3059702 -0.78806192
28 21 16.426367 5.5660419
-0.41947451 25 22 17.345816
5.8784652 -0.016757855 29 23
29.205086 9.9853125 0.69001019 21
24 31.337645 10.712157 1.5167515
25 25 30.87545 10.540041
2.254894 5 26 30.109838
10.263494 2.9428151 19 27
29.843046 10.165518 3.6628058 30
28 29.012924 9.8675365 4.2843337
15 29 11.568042 3.8476291
1.9971255 43 30 32.137985
10.926286 6.3713927 13 31
0.44106683 0.014613361 -0.27392247 63
0 0.42232761 0.0079755001 -0.24839538
39 1 3.2868094 0.98799211
-1.8481742 15 2 3.5181985
1.0657563 -1.8681775 7 3
3.7673047 1.149438 -1.8861222 19
4 4.0432739 1.2420486 -1.9042286
14 5 4.3374019 1.3415035
-1.9167298 18 6 4.7000504
1.4632643 -1.9419038 21 7
5.1102118 1.600868 -1.9682368 28
8 5.6042914 1.7677701 -2.0043385
48 9 6.1575165 1.953339
-2.0339999 36 10 6.8165593
2.1743577 -2.0695741 25 11
7.247118 2.3189318 -2.0093408 73
12 7.6259089 2.444268 -1.9142445
44 13 8.3746786 2.6943824
-1.8865103 52 14 9.2620144
2.9907174 -1.8502295 44 15
10.388074 3.4214704 -1.813574 52
16 12.492959 4.1375618 -1.8672582
18 17 13.554029 4.4979076
-1.6852409 30 18 14.314458
4.7523417 -1.4246497 31 19
15.070556 5.0046701 -1.1277049 28
20 15.693416 5.2141271 -0.78814095
26 21 16.592316 5.5140729
-0.42282706 23 22 17.396198
5.7811232 -0.016754013 27 23
32.728825 10.99035 0.77187967 14
24 28.873835 9.6685333 1.3945794
9 25 34.985413 11.730219
2.5501275 15 26 30.123671
10.069445 2.9382415 19 27
30.180084 10.082627 3.6967344 31
28 29.238615 9.7524614 4.3089852
15 29 11.662464 3.8033516
2.0093946 28 30 31.865742
10.622351 6.3047018 6 31
0.43863299 0.011272479 -0.27187768 64
0 0.43301484 0.009263223 -0.25428012
38 1 3.2980108 0.97159922
-1.8509909 15 2 3.5214188
1.0453023 -1.8663744 14 3
3.7829738 1.1315684 -1.890403 20
4 4.0491009 1.2191967 -1.9034077
14 5 4.3385596 1.3152189
-1.9136347 18 6 4.7123876
1.4384475 -1.943356 21 7
5.1233215 1.5738498 -1.969601 27
8 5.6238089 1.7397623 -2.0075412
48 9 6.1690378 1.9192843
-2.0339923 36 10 6.8274651
2.1359751 -2.0690131 26 11
7.2514844 2.2757359 -2.0067914 78
12 7.6143322 2.3934271 -1.907757
44 13 8.3773098 2.6436851
-1.8835779 65 14 9.2624617
2.9337795 -1.846871 44 15
10.553605 3.4129109 -1.8389838 57
16 12.529736 4.0725937 -1.8692051
18 17 13.551348 4.4131694
-1.6817213 33 18 14.333893
4.6702886 -1.4238844 30 19
15.05917 4.9076157 -1.1247232 28
20 15.775964 5.1446524 -0.79078019
28 21 16.644325 5.4288745
-0.423338 25 22 17.318836
5.6476593 -0.016637204 30 23
28.600552 9.4097919 0.67311782 29
24 28.871124 9.4888802 1.3918647
22 25 31.817572 10.458837
2.3147688 17 26 30.149775
9.8917437 2.9353268 19 27
33.113331 10.87099 4.0486836 22
28 30.345871 9.9392891 4.4639473
13 29 12.276184 3.9349627
2.1113386 15 30 32.01096
10.473475 6.321691 19 31
0.43617478 0.0078756409 -0.26983199 64
0 0.43548077 0.0074591814 -0.25525951
38 1 3.3061502 0.95287234
-1.8519264 13 2 3.5300391
1.0252336 -1.8672687 14 3
3.7938261 1.1105297 -1.8921125 20
4 4.0585566 1.1967659 -1.9042172
14 5 4.3540769 1.2920845
-1.9167185 18 6 4.7215767
1.4108032 -1.9433496 21 7
5.1366491 1.5458043 -1.9709662 28
8 5.6329894 1.7061268 -2.0068922
45 9 6.1901507 1.8859193
-2.036972 38 10 6.8458629
2.0987949 -2.0706635 26 11
7.2637696 2.232424 -2.0062745 81
12 7.719347 2.3794825 -1.9304233
41 13 0.0067474144 -0.13379866
-0.001139598 128 14 9.3285275
2.8966196 -1.8565314 41 15
10.5744 3.3506424 -1.8389721 52
16 12.563046 4.0039406 -1.8705909
20 17 13.564844 4.3287749
-1.6800717 31 18 14.314758
4.5700812 -1.4191821 28 19
15.131486 4.8356123 -1.127955 37
20 15.808847 5.0520773 -0.79085851
28 21 16.635162 5.3168077
-0.4222621 25 22 17.488575
5.5931597 -0.016740993 33 23
29.093601 9.3836765 0.68343431 20
24 28.97879 9.3348579 1.3943641
13 25 31.930981 10.293516
2.3186603 23 26 0.0067474144
-0.13379866 -0.001139598 10 27
33.157066 10.668354 4.0461812 11
28 30.463505 9.7847605 4.4728322
8 29 11.993382 3.7651551
2.058774 33 30 31.20006
10.000486 6.1495705 6 31
0.43700248 0.0056503671 -0.26983014 64
0 0.44455129 0.0079167904 -0.26016304
37 1 3.3106697 0.93358624
-1.8509812 11 2 3.540014
1.0063088 -1.869061 14 3
3.7972364 1.0885282 -1.8903924 18
4 4.0643702 1.1731206 -1.9033965
14 5 4.3639545 1.2678715
-1.9174851 18 6 4.7354422
1.3864547 -1.9455307 21 7
5.1515055 1.5182267 -1.9730161 27
8 5.6503425 1.6772628 -2.0094523
48 9 6.2030964 1.8522446
-2.0375612 38 10 6.8676729
2.0625949 -2.0734191 26 11
7.2639689 2.1880453 -2.0027089 81
12 7.7132192 2.3288014 -1.9253232
47 13 8.3746119 2.5384979
-1.8760434 44 14 9.3433352
2.8442843 -1.856148 41 15
10.577289 3.2846515 -1.8360264 42
16 12.592257 3.9338109 -1.871417
18 17 13.607248 4.2565594
-1.6821591 30 18 14.413551
4.511251 -1.4262903 28 19
15.178765 4.7550101 -1.1293503 32
20 15.872608 4.9724793 -0.79254866
26 21 16.657648 5.2219076
-0.42205131 28 22 17.483089
5.4806919 -0.016687714 32 23
28.8717 9.1280851 0.67697936 10
24 30.317127 9.5860023 1.4562317
10 25 32.142349 10.1589
2.3297195 18 26 31.816504
10.048451 3.08635 17 27
30.160639 9.5067739 3.6737673 30
28 30.248215 9.5231457 4.4330244
17 29 0.0067890445 -0.13355048
-0.001138311 19 30 32.323532
10.167126 6.3597283 27 31
0.43118808 0.001378955 -0.2657415 65
0 0.43533722 0.0025242909 -0.25427401
38 1 3.3301582 0.91905701
-1.8584995 9 2 3.5462883
0.9867937 -1.8690559 14 3
3.8007069 1.0659013 -1.8886722 19
4 4.0804744 1.1527302 -1.9074659
14 5 4.3736715 1.2435954
-1.9182514 18 6 4.7440743
1.3595192 -1.9455239 21 7
5.1680822 1.4910998 -1.975752 27
8 5.6609716 1.6440634 -2.009445
48 9 6.2219882 1.8180479
-2.0399425 38 10 6.8802042
2.0233727 -2.0734107 26 11
7.2683277 2.1423888 -2.0001593 81
12 7.6311555 2.2531645 -1.9012505
59 13 8.2077742 2.4305139
-1.83512 26 14 9.3476429
2.7850671 -1.8535328 37 15
10.607426 3.2295029 -1.8379695 52
16 12.6305 3.8664069 -1.8736429
18 17 13.6163 4.1761665
-1.6802742 33 18 14.456281
4.4365616 -1.4279612 29 19
15.22369 4.6734357 -1.1306037 28
20 15.916851 4.8862734 -0.79328936
28 21 16.789145 5.1582556
-0.42458239 22 22 17.600897
5.4074197 -0.016744662 30 23
29.460388 9.1309757 0.68958002 21
24 30.156824 9.3384581 1.4458364
15 25 31.667873 9.8070736
2.2911642 11 26 30.281862
9.3602791 2.9319253 13 27
30.23609 9.3343048 3.6761065 23
28 31.174412 9.6162319 4.5603256
13 29 31.62995 9.7526779
5.4135399 18 30 42.26685
13.061759 8.3013964 13 31
0.43692237 0.00055450835 -0.2688044 65
0 0.44281539 0.0022077381 -0.25819674
37 1 3.3346331 0.89905787
-1.8575541 7 2 3.5547836
0.96598047 -1.8699496 14 3
3.8112133 1.0446802 -1.8903813 19
4 4.0862751 1.1282915 -1.9066447
13 5 4.3870254 1.2196037
-1.9205621 18 6 4.7599459
1.3338327 -1.9484339 21 7
5.1794009 1.4613311 -1.9764303 27
8 5.676507 1.6134591 -2.0113628
45 9 6.2330923 1.7825774
-2.0399339 38 10 6.8946819
1.9834365 -2.0739548 27 11
7.2701387 2.0974422 -1.9971006 81
12 7.7991176 2.2569094 -1.9396497
55 13 8.2051067 2.3798602
-1.8313525 30 14 9.390584
2.7396624 -1.8587289 41 15
10.633372 3.1668563 -1.8389344 55
16 12.67285 3.7977469 -1.876428
20 17 13.668851 4.1015949
-1.6835293 33 18 14.453437
4.3392448 -1.424945 27 19
15.272785 4.5899777 -1.132139 32
20 15.974921 4.8010988 -0.79469389
28 21 16.829739 5.0619864
-0.424804 19 22 17.662043
5.3123102 -0.016749525 35 23
29.56052 8.9708548 0.69068682 21
24 30.254667 9.1788664 1.4479741
21 25 31.808134 9.6449518
2.2971261 11 26 30.160728
9.1326342 2.9150221 18 27
30.893898 9.3461208 3.7494783 25
28 31.347258 9.4732885 4.5775151
19 29 31.76919 9.5965662
5.4277687 24 30 33.452675
10.099485 6.5581307 14 31
0.43930048 -0.0011445133 -0.26982424 48
0 0.44854346 0.0015187433 -0.26113799
37 1 3.3504288 0.88380164
-1.8631914 5 2 3.5608168
0.94637078 -1.8699443 14 3
3.8178747 1.0229988 -1.8903755 19
4 4.0987129 1.1066307 -1.9090841
14 5 4.3962173 1.195956
-1.9213278 18 6 4.7664876
1.3062081 -1.9476975 21 7
5.1956635 1.4339418 -1.979166 26
8 5.688262 1.5816355 -2.0119967
48 9 6.2640915 1.7530379
-2.0464969 40 10 6.9177389
1.9473606 -2.0772631 26 11
7.2754354 2.053643 -1.9950589 81
12 7.7455664 2.1921725 -1.9229798
52 13 8.236659 2.3365529
-1.835099 14 14 9.3829279
2.6769304 -1.8538816 39 15
10.687438 3.1187356 -1.8451136 49
16 12.712267 3.7302976 -1.8789331
20 17 13.696041 4.0268188
-1.6839803 31 18 14.510448
4.2687883 -1.4281139 25 19
15.295846 4.5012846 -1.1318384 38
20 15.986864 4.7076635 -0.79391623
29 21 16.872673 4.9695582
-0.42512053 20 22 17.717897
5.2185082 -0.016750803 37 23
29.641397 8.8156023 0.69143641 21
24 30.357327 9.0202351 1.450388
21 25 33.10173 9.835269
2.3864758 19 26 30.083424
8.9146957 2.9023542 22 27
30.327591 8.9823313 3.6743305 15
28 31.360174 9.2808409 4.5714641
14 29 41.878777 12.423059
7.1429372 14 30 32.501625
9.6049986 6.3605742 13 31
0.44002342 -0.0034572948 -0.2698217 48
0 0.43927345 -0.003849362 -0.25524876
38 1 3.3648496 0.86674422
-1.8678882 4 2 3.5705378
0.92655784 -1.8717363 14 3
3.8315718 1.0027233 -1.8937984 20
4 4.1162224 1.0864294 -1.9139677
9 5 4.4075685 1.17117
-1.9228667 18 6 4.774929
1.278224 -1.9476907 20 7
5.2009487 1.403267 -1.9777871 27
8 5.6982484 1.5481837 -2.0119884
45 9 6.269628 1.7145284
-2.0446963 38 10 6.9313736
1.9083916 -2.0778062 25 11
7.2826476 2.0092099 -1.9935243 81
12 7.7046819 2.1319788 -1.9095496
47 13 8.2600508 2.2922032
-1.8371753 13 14 8.3259735
2.3084249 -1.6422232 17 15
10.733 3.0635962 -1.8496629 47
16 12.751315 3.6626101 -1.8814371
20 17 13.724201 3.9470913
-1.6844304 33 18 14.522906
4.179121 -1.4267843 34 19
15.339403 4.4187093 -1.1330904 35
20 16.04587 4.6223478 -0.79541409
28 21 16.986906 4.8948555
-0.42721656 23 22 17.734871
5.1129603 -0.01671713 32 23
29.780111 8.6657562 0.69348449 21
24 31.344124 9.1160994 1.4949758
17 25 32.590042 9.4775686
2.3455787 24 26 30.104326
8.7330046 2.8994441 18 27
32.130585 9.3177099 3.8860822 19
28 42.228569 12.280376 6.1460671
20 29 42.147114 12.240483
7.1765347 14 30 31.355175
9.0598793 6.1254168 12 31
0.44403946 -0.0047348081 -0.27186269 48
0 0.4483583 -0.0036643408 -0.26015237
28 1 0.46763614 0.0018346536
-0.25692731 15 2 3.5765507
0.90629101 -1.8717306 14 3
3.8310969 0.97894722 -1.8903635 19
4 4.1144166 1.0605013 -1.9098865
13 5 4.4184995 1.1471
-1.9244047 18 6 4.7864885
1.2520816 -1.9491415 21 7
5.2096686 1.3736302 -1.9777794 27
8 5.7150788 1.5178161 -2.0145473
48 9 6.2801447 1.678781
-2.0446873 38 10 6.9337516
1.8661283 -2.0750322 23 11
7.2818069 1.9638196 -1.9899575 81
12 7.7137852 2.0868566 -1.9086134
55 13 8.2926426 2.250375
-1.8413388 14 14 8.3172064
2.2543023 -1.6377487 24 15
8.3283224 2.2953165 -1.4328194 24
16 8.3318176 2.2947066 -1.2273097
20 17 8.3464499 2.2958364
-1.0227811 26 18 8.3525133
2.2944477 -0.81939435 22 19
8.3555555 2.2937779 -0.61644745 28
20 8.3621244 2.2925057 -0.4141967
26 21 0.0066758329 -0.13243578
-0.0011300988 100 22 8.3881359
2.29533 -0.0084761754 18 23
0.0066758329 -0.13243578 -0.0011300988 57
24 0.0066758329 -0.13243578 -0.0011300988
61 25 0.0066758329 -0.13243578
-0.0011300988 57 26 0.0066758329
-0.13243578 -0.0011300988 20 27
0.0066758329 -0.13243578 -0.0011300988 57
28 0.0066758329 -0.13243578 -0.0011300988
27 29 0.0066758329 -0.13243578
-0.0011300988 100 30 0.0066758329
-0.13243578 -0.0011300988 22 31
0.43977547 -0.0084799686 -0.26879576 48
0 0.44575602 -0.0069314786 -0.25818816
28 1 0.47177246 0.00037093053
-0.25880596 23 2 3.5858903
0.88697743 -1.8735225 14 3
3.8425884 0.95863158 -1.892929 19
4 4.1264596 1.0385463 -1.9123254
12 5 4.4257803 1.1219523
-1.9243981 18 6 4.7908034
1.2237607 -1.9476765 20 7
5.2291074 1.3469917 -1.9818857 27
8 5.7281284 1.4862292 -2.0158229
48 9 6.3032675 1.6465417
-2.0488596 40 10 6.9525442
1.828645 -2.077234 22 11
7.2788591 1.9180144 -1.9858823 78
12 7.791935 2.0612307 -1.924799
82 13 8.298646 2.2008753
-1.8396572 13 14 8.3459196
2.2110314 -1.6407126 19 15
8.3345299 2.2455294 -1.4315045 30
16 8.3303566 2.2427332 -1.225058
25 17 8.3430519 2.2432432
-1.020667 39 18 8.3337479
2.237431 -0.81619608 30 19
8.3520479 2.2411027 -0.61516494 40
20 8.3547115 2.2386706 -0.41314173
38 21 8.3836908 2.2437396
-0.2106155 26 22 8.3826895
2.2419064 -0.0084479861 24 23
0.006637122 -0.13221917 -0.0011284271 100
24 0.006637122 -0.13221917 -0.0011284271
100 25 0.006637122 -0.13221917
-0.0011284271 100 26 0.006637122
-0.13221917 -0.0011284271 46 27
0.006637122 -0.13221917 -0.0011284271 69
28 8.4035053 2.2319493 1.2173743
22 29 0.006637122 -0.13221917
-0.0011284271 33 30 8.4151888
2.228919 1.6367908 17 31
0.44216073 -0.010315282 -0.26981586 48
0 0.44476038 -0.0096970424 -0.25720474
28 1 0.47762766 -0.00064028939
-0.26162511 23 2 3.5899432
0.86616373 -1.8726174 14 3
3.8487921 0.93681675 -1.8929226 19
4 4.1348219 1.0155934 -1.9131335
14 5 4.4471049 1.1007582
-1.9305698 15 6 4.8074684
1.1989958 -1.9513142 19 7
5.2375059 1.3172286 -1.9818774 27
8 5.7391362 1.4540657 -2.0164559
48 9 6.3170419 1.6115755
-2.0500448 40 10 6.969245
1.7904737 -2.0788827 22 11
7.2849097 1.8748871 -1.9843475 78
12 7.8044171 2.0167029 -1.9247879
39 13 8.2515421 2.1368017
-1.8262866 27 14 8.4084682
2.1768026 -1.6503717 2 15
8.351819 2.1989081 -1.4321446 26
16 8.3534288 2.1977878 -1.2264466
20 17 8.3775959 2.2014236
-1.0232249 29 18 8.3625593
2.1940451 -0.81768423 25 19
8.3693705 2.1943984 -0.61543578 31
20 8.3836164 2.1951747 -0.41388911
30 21 8.4029894 2.1974387
-0.21074796 23 22 8.4116068
2.1982691 -0.008449669 20 23
8.4122276 2.1952615 0.19404148 19
24 8.4140177 2.1926029 0.39831638
18 25 8.4167185 2.1917486
0.60163778 20 26 8.4401827
2.1950808 0.80767673 22 27
8.4548826 2.1959665 1.0161979 16
28 8.443635 2.1913328 1.2212604
17 29 8.4471817 2.1890924
1.4295334 15 30 8.4532299
2.1876118 1.6415955 14 31
0.43952748 -0.013502638 -0.26777041 48
0 0.44376478 -0.012462605 -0.25622168
28 1 0.47833338 -0.0031453127
-0.26162285 23 2 3.6008167
0.84718329 -1.8753084 14 3
3.8566349 0.91542226 -1.8937738 19
4 4.1486282 0.99327236 -1.916387
13 5 4.4469748 1.0735039
-1.9274732 18 6 4.815032
1.1715943 -1.9513068 20 7
5.2514138 1.2879338 -1.9839261 25
8 5.7517843 1.4223211 -2.0177307
48 9 6.3195801 1.5735055
-2.047646 38 10 6.9879003
1.7514524 -2.0810835 22 11
7.2962799 1.8333076 -1.9843363 81
12 7.8883839 1.989944 -1.942361
49 13 8.3347292 2.1069794
-1.8417209 8 14 0.0066400417
-0.13175435 -0.0011253492 100 15
10.778813 2.8104243 -1.8453687 29
16 12.889179 3.3819976 -1.88921
24 17 13.729953 3.6087575
-1.6740791 27 18 14.668009
3.8589861 -1.4315816 10 19
15.509906 4.0823069 -1.1380928 16
20 16.24721 4.2796903 -0.80007249
18 21 0.0066400417 -0.13175435
-0.0011253492 113 22 8.4715586
2.1612096 -0.0084780892 61 23
0.0066400417 -0.13175435 -0.0011253492 6
24 31.189543 8.2976475 1.4781159
16 25 0.0066400417 -0.13175435
-0.0011253492 6 26 31.837734
8.4490891 3.0467041 16 27
32.396641 8.5936928 3.8931637 19
28 32.347668 8.5684347 4.6770778
15 29 0.0066400417 -0.13175435
-0.0011253492 19 30 31.802876
8.4040642 6.1731334 12 31
0.44685093 -0.014017475 -0.27185449 48
0 0.44612595 -0.014354154 -0.25720039
28 1 3.4076345 0.77447706
-1.8763237 3 2 3.613421
0.82791764 -1.8788977 14 3
3.8680086 0.89422578 -1.8963391 20
4 4.156929 0.96941423 -1.9171947
13 5 4.4540329 1.0473877
-1.9274663 18 6 4.8190122
1.1423538 -1.9498408 20 7
5.2578759 1.2566152 -1.9832318 26
8 5.7645454 1.3894618 -2.0190058
48 9 6.3314252 1.5368482
-2.0482337 38 10 7.0082035
1.7127132 -2.083838 21 11
7.2965856 1.7873527 -1.9812769 78
12 7.8367987 1.9266838 -1.9266156
42 13 8.3838005 2.0673013
-1.8496405 14 14 9.4559631
2.3452396 -1.8500835 29 15
10.744536 2.7331176 -1.8365542 40
16 12.905919 3.3049157 -1.8886317
25 17 13.709612 3.5164649
-1.6689203 30 18 14.654813
3.7626522 -1.4279997 21 19
15.592415 4.006063 -1.1423069 29
20 16.294237 4.1893411 -0.80109322
23 21 17.267998 4.4412465
-0.43066359 21 22 18.00354
4.6293988 -0.016707722 30 23
32.571533 8.4771681 0.75269723 20
24 31.393406 8.1539993 1.4854773
23 25 0.0066013308 -0.13153772
-0.0011236775 3 26 31.891785
8.2617893 3.0471146 22 27
32.991417 8.5451288 3.9584777 30
28 32.569054 8.4219456 4.7017474
15 29 44.033314 11.416912
7.4377775 16 30 32.480305
8.3804483 6.2948327 26 31
0.44086149 -0.018079406 -0.26776597 48
0 0.44341177 -0.017572502 -0.25523621
28 1 0.47808191 -0.0086322557
-0.26067805 15 2 3.6171522
0.80697775 -1.8779925 14 3
3.8753581 0.87337941 -1.897189 20
4 4.1594777 0.94559145 -1.9155581
13 5 4.4678731 1.0239192
-1.9305481 18 6 4.8422823
1.1199799 -1.9563942 18 7
5.2709603 1.2289447 -1.9852803 27
8 5.7820659 1.3599278 -2.0222056
45 9 6.3591065 1.5065562
-2.0541975 40 10 7.0220737
1.6749086 -2.0849323 21 11
7.3052711 1.7464758 -1.9807575 81
12 7.8575802 1.8856702 -1.9289176
42 13 8.4295778 2.0310555
-1.8571415 20 14 9.5148649
2.3061397 -1.8589962 32 15
10.764607 2.6725652 -1.8371902 44
16 12.934475 3.2357395 -1.8900135
24 17 13.77072 3.4484227
-1.6738065 28 18 14.730917
3.6926668 -1.4332275 26 19
15.638352 3.9254467 -1.1439786 31
20 16.376783 4.1110115 -0.80391479
25 21 17.341612 4.3578162
-0.43184164 23 22 18.089796
4.5448475 -0.016734058 35 23
31.989267 8.1272402 0.73815376 6
24 32.698406 8.3042955 1.5450854
26 25 0.0066185673 -0.13134548
-0.0011224756 3 26 32.175735
8.1514807 3.0699894 22 27
33.137314 8.3867865 3.9702859 31
28 32.618111 8.2412167 4.7020679
20 29 44.125534 11.187383
7.4429984 16 30 34.776077
8.775878 6.730267 23 31
0.4564549 -0.016455131 -0.27695841 47
0 0.44568545 -0.019359309 -0.2562151
28 1 0.48383239 -0.0097309817
-0.26349679 15 2 3.6171124
0.78574461 -1.8752894 14 3
3.8862941 0.85270661 -1.8997537 20
4 4.1709094 0.92330372 -1.9179957
13 5 4.4796042 1.0006349
-1.9328578 18 6 4.8421535
1.0905949 -1.9534699 20 7
5.2878089 1.2012358 -1.9886996 26
8 5.7868896 1.3260587 -2.0209126
45 9 6.3591371 1.4679127
-2.0512009 38 10 7.0341573
1.6352841 -2.0854738 21 11
7.31217 1.7037795 -1.97973 81
12 7.8331704 1.8317603 -1.9201134
34 13 8.4612131 1.9861153
-1.8613034 36 14 9.5348415
2.2514901 -1.8600974 31 15
10.804886 2.6191959 -1.8414105 52
16 12.947803 3.1601436 -1.8891548
25 17 13.763453 3.3650851
-1.6705159 28 18 14.670894
3.5902338 -1.4253339 39 19
15.70201 3.8460984 -1.146921 32
20 16.415636 4.0238934 -0.80465031
28 21 17.372892 4.259882
-0.43196088 22 22 18.141493
4.4474649 -0.016729871 30 23
32.017334 7.9448128 0.737795 25
24 0.0065798569 -0.13112886 -0.0011208039
3 25 0.0065798569 -0.13112886
-0.0011208039 3 26 33.095306
8.1800346 3.1530735 25 27
32.904339 8.1260023 3.9366584 40
28 32.667538 8.0544672 4.7023907
20 29 34.187084 8.4226608
5.7575064 7 30 34.220184
8.4246149 6.6130805 7 31
0.44710928 -0.021391638 -0.27082658 48
0 0.45143497 -0.020457186 -0.25915635
28 1 0.47771853 -0.014070407
-0.25973338 15 2 3.6224625
0.76456827 -1.875283 14 3
3.8902833 0.8294571 -1.8988898 20
4 4.1786609 0.90001804 -1.9188036
14 5 4.484405 0.97390252
-1.9320775 18 6 4.85111
1.0625885 -1.9541909 20 7
5.2898641 1.169703 -1.9866341 27
8 5.8100724 1.2956609 -2.0260372
45 9 6.3740549 1.4319175
-2.0529821 36 10 7.0460558
1.5955404 -2.0860157 22 11
7.3172503 1.6593438 -1.9781939 66
12 7.7913604 1.7740359 -1.9071441
39 13 8.4827261 1.9400544
-1.8633776 46 14 9.5407448
2.1950436 -1.8585954 31 15
10.834395 2.5587959 -1.8436756 44
16 12.964548 3.0855241 -1.8888552
28 17 13.808927 3.2900035
-1.6735325 29 18 14.839542
3.5399897 -1.4395574 31 19
15.761403 3.7652123 -1.1495805 32
20 16.476795 3.9360414 -0.80642807
28 21 17.466532 4.1739807
-0.43361884 27 22 18.231606
4.3592348 -0.016758775 33 23
32.122761 7.7697983 0.73918355 26
24 33.347458 8.0587559 1.5712558
7 25 0.006565541 -0.13085629
-0.0011188088 3 26 31.556355
7.6013298 3.0021379 21 27
33.137878 7.9767518 3.958847 31
28 0.006565541 -0.13085629 -0.0011188088
11 29 38.780045 9.336009
6.522109 20 30 39.061829
9.3904133 7.5381141 20 31
0.45272163 -0.022495832 -0.2738893 47
0 0.45038342 -0.023198353 -0.25817332
28 1 0.47151005 -0.018168803
-0.25596929 15 2 3.632725
0.74525505 -1.877973 14 3
3.8992589 0.80823773 -1.9005971 20
4 4.1846795 0.87548739 -1.9187963
13 5 4.4942179 0.94925445
-1.9336141 18 6 4.8633041
1.0362387 -1.9563698 20 7
5.3139334 1.1425847 -1.9927956 25
8 5.8071451 1.2598352 -2.0221772
45 9 6.3847423 1.3959647
-2.0535688 38 10 7.0692544
1.5572073 -2.0898745 25 11
7.3198314 1.6157298 -1.9761493 17
12 7.8119254 1.7303869 -1.9094452
42 13 8.5937624 1.9136266
-1.8850713 65 14 9.5447617
2.1365545 -1.8567202 32 15
10.788271 2.481921 -1.8332305 47
16 12.97953 3.0080767 -1.8882759
28 17 13.841904 3.2141731
-1.6751473 31 18 14.873927
3.4582174 -1.4408474 25 19
15.805486 3.6772816 -1.1511096 29
20 16.501801 3.8420413 -0.80649847
28 21 17.492872 4.0743375
-0.4336406 25 22 18.333675
4.2697191 -0.01679647 26 23
32.282322 7.6129241 0.74187046 26
24 33.391987 7.8668861 1.5712125
7 25 33.635563 7.9128432
2.3878801 12 26 31.514389
7.3939342 2.9938986 10 27
33.647675 7.8972282 4.0142508 32
28 0.0065827766 -0.13066405 -0.001117726
11 29 38.439758 9.0125351
6.4557109 9 30 38.326012
8.9784317 7.38591 19 31
0.44662029 -0.026508974 -0.26980042 48
0 0.45438999 -0.024804965 -0.2601333
28 1 3.4426646 0.67932183
-1.8819351 2 2 3.6378341
0.72398406 -1.8779662 14 3
3.8993328 0.78482479 -1.8980187 20
4 4.1939092 0.85255873 -1.9204183
14 5 4.5023293 0.92328137
-1.9343789 18 6 4.8680954
1.0081122 -1.9556323 19 7
5.3156357 1.1110061 -1.9907296 28
8 5.8223906 1.2284278 -2.0247345
48 9 6.4026756 1.3617221
-2.0565445 36 10 7.0825605
1.5176511 -2.0909688 25 11
7.3297653 1.573911 -1.9761375 18
12 7.7902846 1.6782693 -1.9015661
42 13 8.5192995 1.8460811
-1.8662726 60 14 9.5514774
2.0822854 -1.855589 31 15
10.841965 2.427305 -1.8397315 47
16 12.981898 2.9300635 -1.8860159
30 17 13.896226 3.1406305
-1.6793307 40 18 14.964695
3.3867714 -1.4475726 24 19
15.83289 3.5880291 -1.151509 32
20 16.569744 3.7550948 -0.80865413
26 21 17.592648 3.9918215
-0.43548962 27 22 18.483276
4.1937704 -0.0168752 32 23
32.444397 7.4492931 0.74460399 26
24 0.0065440657 -0.13044742 -0.0011160544
3 25 33.442173 7.6641016
2.3709741 18 26 31.544079
7.2158618 2.9928408 10 27
0.0065440657 -0.13044742 -0.0011160544 3
28 0.0065440657 -0.13044742 -0.0011160544
11 29 38.213181 8.7343588
6.4093118 9 30 0.0065440657
-0.13044742 -0.0011160544 17 31
0.45056313 -0.027954334 -0.27184168 48
0 0.46000326 -0.025910005 -0.26307407
37 1 3.4384663 0.65842962
-1.8772262 2 2 3.6442695
0.70440203 -1.878858 14 3
3.9062116 0.76305163 -1.8988683 20
4 4.1993356 0.8294183 -1.920411
14 5 4.5099216 0.8988663
-1.9351432 18 6 4.8781357
0.98123395 -1.9570811 20 7
5.3261471 1.0824573 -1.9920917 28
8 5.8300943 1.1952386 -2.0247242
45 9 6.4148507 1.3259885
-2.0577285 38 10 7.084126
1.4767431 -2.0887456 23 11
7.3319058 1.5303558 -1.9740928 18
12 7.8173065 1.6389363 -1.905718
42 13 8.5285816 1.796954
-1.8658408 48 14 9.5294991
2.019799 -1.848879 31 15
10.873323 2.3711617 -1.842647 52
16 13.03156 2.8655467 -1.8907555
40 17 13.925855 3.0661259
-1.6807109 37 18 14.972383
3.3009825 -1.4464246 24 19
15.915621 3.5142863 -1.1560026 31
20 16.598898 3.6648133 -0.80900764
26 21 17.643291 3.8972313
-0.43613523 23 22 18.546047
4.0999489 -0.016879782 29 23
32.349579 7.2376904 0.74151975 26
24 0.0065053557 -0.1302308 -0.0011142634
3 25 33.343014 7.4457607
2.360961 12 26 31.785789
7.0802393 3.0118544 10 27
0.0065053557 -0.1302308 -0.0011142634 3
28 0.0065053557 -0.1302308 -0.0011142634
11 29 0.0065053557 -0.1302308
-0.0011142634 9 30 39.641853
8.8120146 7.6193953 10 31
0.45276332 -0.029908713 -0.27286062 32
0 0.45717716 -0.02907956 -0.26110977
27 1 3.446382 0.63967055
-1.8791006 2 2 3.6524668
0.68445444 -1.880649 14 3
3.9095638 0.74047941 -1.8980041 20
4 4.2049208 0.80481023 -1.920403
13 5 4.5157809 0.87320662
-1.9351352 18 6 4.8953447
0.95590168 -1.9614464 21 7
5.336895 1.0520076 -1.9934533 27
8 5.846827 1.1640506 -2.0279229
36 9 6.4249516 1.2897589
-2.0583148 36 10 7.1010032
1.4366992 -2.0909445 26 11
7.3318033 1.4863786 -1.9715394 20
12 7.81813 1.5908272 -1.9033908
42 13 8.5455551 1.7479424
-1.8670789 44 14 9.568923
1.9695354 -1.8540701 39 15
10.895193 2.3106265 -1.8439329 47
16 13.045194 2.7877548 -1.8901746
40 17 13.965233 2.9911032
-1.6832578 35 18 14.980128
3.2125723 -1.4452761 23 19
15.934935 3.4199033 -1.1558356 31
20 16.6633 3.579211 -0.81106764
24 21 17.615376 3.7847519
-0.43485785 24 22 18.617601
4.0007668 -0.016890386 26 23
32.463612 7.0680451 0.74322546 26
24 0.0065469858 -0.12998261 -0.0011129763
3 25 0.0065469858 -0.12998261
-0.0011129763 3 26 31.964041
6.9223032 3.0247927 16 27
0.0065469858 -0.12998261 -0.0011129763 3
28 0.0065469858 -0.12998261 -0.0011129763
11 29 0.0065469858 -0.12998261
-0.0011129763 9 30 39.542801
8.5516129 7.5906992 21 31
0.45505103 -0.031967826 -0.27388036 31
0 0.46288508 -0.030425629 -0.26405114
36 1 3.4387963 0.61691928
-1.8725109 3 2 3.6571987
0.66308159 -1.8806417 14 3
3.9128716 0.71719414 -1.8971395 19
4 4.2119732 0.78129655 -1.9212099
13 5 4.5233788 0.84712446
-1.9358984 19 6 4.8998895
0.92675078 -1.9607086 21 7
5.345439 1.0219837 -1.9941293 27
8 5.854403 1.1296521 -2.0279129
48 9 6.4407215 1.2535942
-2.0606928 36 10 7.1098313
1.3961616 -2.0909317 27 11
7.331821 1.4411502 -1.9689866 20
12 7.8050318 1.5412525 -1.8978245
42 13 8.4739532 1.6814827
-1.8491145 48 14 9.582736
1.9152399 -1.8544255 44 15
10.913282 2.2472095 -1.8445663 42
16 13.090692 2.7193251 -1.8943529
38 17 13.892266 2.8888423
-1.6722562 33 18 14.972427
3.1181738 -1.4426281 30 19
15.978465 3.333612 -1.1575043 31
20 16.766981 3.4985282 -0.8150233
25 21 17.72616 3.6997001
-0.4369927 25 22 18.785656
3.9252954 -0.016982511 30 23
32.642441 6.9055643 0.74641055 26
24 0.0065082749 -0.12976599 -0.0011113047
3 25 0.0065082749 -0.12976599
-0.0011113047 3 26 32.169472
6.7744126 3.0404947 22 27
0.0065082749 -0.12976599 -0.0011113047 3
28 0.0065082749 -0.12976599 -0.0011113047
11 29 0.0065082749 -0.12976599
-0.0011113047 9 30 0.0065082749
-0.12976599 -0.0011113047 17 31
0.4387334 -0.037874434 -0.26366162 33
0 0.46511713 -0.032460634 -0.26502973
27 1 3.4499159 0.59883422
-1.8762656 3 2 3.6687369
0.64381462 -1.8842303 14 3
3.9300156 0.69755584 -1.9031318 20
4 4.222652 0.75773919 -1.9236468
13 5 4.5325003 0.82211208
-1.9374349 18 6 4.9167843
0.90115601 -1.9650735 21 7
5.3576493 0.99169779 -1.9961762 27
8 5.8596554 1.0958649 -2.0272601
45 9 6.4485316 1.2168299
-2.0606811 38 10 7.124393
1.3555273 -2.0925777 25 11
7.3425794 1.3997062 -1.9694812 18
12 7.8224134 1.4968588 -1.8996619
42 13 8.5151482 1.6379104
-1.8557788 52 14 9.5831156
1.8563384 -1.8521775 39 15
10.926791 2.1847224 -1.8445486 49
16 13.056962 2.6313977 -1.8870519
35 17 13.89185 2.8055179
-1.6701312 33 18 15.033671
3.0414135 -1.4467269 27 19
16.047449 3.2495456 -1.1610065 33
20 16.881338 3.4221823 -0.8195467
25 21 17.861351 3.6219211
-0.43975198 19 22 18.83086
3.8188252 -0.016970107 24 23
0.006469565 -0.12954935 -0.0011095138 3
24 0.006469565 -0.12954935 -0.0011095138
3 25 0.006469565 -0.12954935
-0.0011095138 3 26 31.776947
6.4939299 2.9996669 15 27
0.006469565 -0.12954935 -0.0011095138 3
28 0.006469565 -0.12954935 -0.0011095138
11 29 0.006469565 -0.12954935
-0.0011095138 9 30 0.006469565
-0.12954935 -0.0011095138 17 31
0.44265902 -0.039512038 -0.26570275 32
0 0.46229103 -0.035630189 -0.26306534
27 1 3.4506979 0.57797825
-1.8743776 4 2 3.6732275
0.62234718 -1.8842227 14 3
3.9364684 0.675569 -1.9039814 20
4 4.2258801 0.73335671 -1.9228235
14 5 4.5380812 0.79550838
-1.9374266 18 6 4.9153237
0.87161905 -1.9621483 20 7
5.3658156 0.96157211 -1.9968516 28
8 5.8758883 1.0642953 -2.0304587
45 9 6.4692936 1.1826899
-2.0648508 36 10 7.1346846
1.3151525 -2.0931182 25 11
7.3474584 1.3569585 -1.9684523 18
12 7.785831 1.4429214 -1.8885424
39 13 8.5133114 1.5884302
-1.8532587 52 14 9.5844135
1.8012326 -1.8503016 39 15
10.973107 2.1270604 -1.850069 44
16 13.066786 2.5553992 -1.8861901
38 17 13.926491 2.7270997
-1.67221 33 18 15.044358
2.951056 -1.4459519 21 19
16.097881 3.163976 -1.1632386 31
20 16.966637 3.3356624 -0.82264721
28 21 18.054962 3.5547645
-0.44395185 22 22 18.90024
3.720458 -0.01697829 30 23
0.0064308541 -0.12933274 -0.0011078422 3
24 0.0064308541 -0.12933274 -0.0011078422
3 25 0.0064308541 -0.12933274
-0.0011078422 3 26 0.0064308541
-0.12933274 -0.0011078422 10 27
0.0064308541 -0.12933274 -0.0011078422 3
28 0.0064308541 -0.12933274 -0.0011078422
11 29 0.0064308541 -0.12933274
-0.0011078422 9 30 0.0064308541
-0.12933274 -0.0011078422 17 31
0.44649714 -0.041044906 -0.26774356 32
0 0.46621728 -0.037268355 -0.26502529
27 1 3.4614918 0.56036812
-1.8781323 4 2 3.679076
0.60248828 -1.8851142 14 3
3.9392266 0.65285623 -1.9031162 20
4 4.2323833 0.71041548 -1.9236302
14 5 4.5449748 0.77086532
-1.9381899 18 6 4.9191442
0.84325016 -1.96141 20 7
5.3718023 0.93192828 -1.9968414 28
8 5.8825965 1.030808 -2.0304472
48 9 6.4748125 1.1453909
-2.0642416 38 10 7.1313238
1.2734585 -2.0897882 23 11
7.3482528 1.313524 -1.9664062 21
12 7.7868247 1.3982687 -1.886678
39 13 8.5518274 1.5454248
-1.8595048 48 14 9.5895233
1.7452663 -1.8491688 42 15
10.904253 2.049897 -1.8363644 44
16 13.071831 2.4809496 -1.8847678
35 17 13.928553 2.6470249
-1.6705515 30 18 15.137449
2.8826609 -1.4532359 24 19
16.182463 3.0877628 -1.1680106 31
20 17.050333 3.2541697 -0.82574791
27 21 18.091537 3.4543219
-0.44430667 23 22 18.962599
3.6235538 -0.016981579 26 23
20.799053 3.979614 0.47355175 2
24 0.0064724847 -0.12908454 -0.0011064359
3 25 0.0064724847 -0.12908454
-0.0011064359 3 26 0.0064724847
-0.12908454 -0.0011064359 10 27
0.0064724847 -0.12908454 -0.0011064359 3
28 0.0064724847 -0.12908454 -0.0011064359
11 29 0.0064724847 -0.12908454
-0.0011064359 9 30 0.0064724847
-0.12908454 -0.0011064359 17 31
0.45880175 -0.041057024 -0.27489251 31
0 0.46155354 -0.040705614 -0.26207945
27 1 3.4636426 0.54038358
-1.8771847 4 2 3.6867428
0.58223945 -1.8869046 14 3
3.9454067 0.63085502 -1.9039651 20
4 4.2479105 0.68841541 -1.9285117
14 5 4.551887 0.74534851
-1.9389533 18 6 4.9282761
0.81596893 -1.9628581 20 7
5.3870173 0.90306753 -2.0002589 27
8 5.8928976 0.99795598 -2.0317197
45 9 6.4876471 1.1095049
-2.0660214 36 10 7.1543293
1.2356113 -2.0941975 26 11
7.3526111 1.2708035 -1.9653766 22
12 7.7935863 1.3534369 -1.8862011
44 13 8.6035509 1.5045285
-1.8686726 52 14 9.5943041
1.6893103 -1.8480356 44 15
10.906854 1.9855677 -1.8347158 57
16 13.092403 2.4071953 -1.8855851
38 17 13.866256 2.5521698
-1.661184 33 18 15.109532
2.7872157 -1.4488995 21 19
16.216311 2.998034 -1.1691118 30
20 17.108688 3.1640115 -0.82761455
27 21 18.209961 3.3695364
-0.44667816 22 22 19.089867
3.5351703 -0.017037759 28 23
0.0064337743 -0.12886792 -0.0011047643 3
24 0.0064337743 -0.12886792 -0.0011047643
3 25 0.0064337743 -0.12886792
-0.0011047643 3 26 0.0064337743
-0.12886792 -0.0011047643 10 27
0.0064337743 -0.12886792 -0.0011047643 3
28 0.0064337743 -0.12886792 -0.0011047643
11 29 0.0064337743 -0.12886792
-0.0011047643 9 30 0.0064337743
-0.12886792 -0.0011047643 17 31
0.4626542 -0.042862479 -0.27693307 31
0 0.46209142 -0.04313745 -0.26207709
27 1 3.4640715 0.51948166
-1.8752966 5 2 3.6873231
0.56000674 -1.8850989 14 3
3.9551635 0.6086989 -1.9065286 20
4 4.2472944 0.66250706 -1.9260583
14 5 4.562377 0.7196756
-1.9412607 18 6 4.9484181
0.78976262 -1.9686801 21 7
5.3929992 0.87142807 -2.0002482 27
8 5.9013109 0.96366084 -2.0323501
48 9 6.4948473 1.0713419
-2.0660088 32 10 7.1585031
1.1927711 -2.0930784 26 11
7.3626547 1.2278733 -1.9658706 21
12 7.7753654 1.3026298 -1.8797077
30 13 8.6015339 1.4517313
-1.866152 56 14 9.5353384
1.6200213 -1.8346288 44 15
10.925014 1.9223207 -1.8356737 44
16 13.111046 2.3306861 -1.8861209
38 17 13.881847 2.4703302
-1.6611588 28 18 15.185191
2.7090366 -1.4544941 21 19
16.212982 2.8982697 -1.1675302 30
20 17.190716 3.0747225 -0.83061743
27 21 18.299122 3.274735
-0.44832802 27 22 19.122984
3.4246483 -0.017013215 27 23
0.0063950634 -0.12865129 -0.0011030926 3
24 0.0063950634 -0.12865129 -0.0011030926
3 25 0.0063950634 -0.12865129
-0.0011030926 3 26 0.0063950634
-0.12865129 -0.0011030926 10 27
0.0063950634 -0.12865129 -0.0011030926 3
28 0.0063950634 -0.12865129 -0.0011030926
11 29 0.0063950634 -0.12865129
-0.0011030926 9 30 0.0063950634
-0.12865129 -0.0011030926 17 31
0.45466962 -0.046790667 -0.27182269 32
0 0.46939597 -0.044310484 -0.2659992
27 1 3.462522 0.49890634
-1.872468 6 2 3.694773
0.53971922 -1.886889 14 3
3.9557617 0.5855931 -1.9048061 20
4 4.2572818 0.63858539 -1.9284943
14 5 4.5689678 0.69403261
-1.9420238 18 6 4.9573164
0.76225042 -1.9701284 21 7
5.3951483 0.83905792 -1.9988667 27
8 5.9149637 0.93134964 -2.0349057
48 9 6.507256 1.0352423
-2.0677884 38 10 7.1699944
1.1513427 -2.0941703 26 11
7.3627119 1.1844275 -1.9638246 18
12 7.7741089 1.2550948 -1.8773797
31 13 8.5799074 1.3955503
-1.8594571 48 14 9.6016026
1.573723 -1.8453964 44 15
11.014251 1.8739378 -1.8486878 44
16 13.117576 2.2518611 -1.8849776
40 17 13.867199 2.3854825
-1.6576302 31 18 15.214966
2.62448 -1.4557793 26 19
16.263988 2.808522 -1.169901 30
20 17.301264 2.9928458 -0.83504301
26 21 18.373507 3.1797838
-0.44964144 22 22 19.218475
3.3250835 -0.017041551 26 23
0.0064122998 -0.12845905 -0.0011018907 3
24 0.0064122998 -0.12845905 -0.0011018907
3 25 0.0064122998 -0.12845905
-0.0011018907 3 26 0.0064122998
-0.12845905 -0.0011018907 10 27
0.0064122998 -0.12845905 -0.0011018907 3
28 0.0064122998 -0.12845905 -0.0011018907
11 29 0.0064122998 -0.12845905
-0.0011018907 9 30 0.0064122998
-0.12845905 -0.0011018907 17 31
0.45685259 -0.048937287 -0.27284226 32
0 0.46988505 -0.04685422 -0.26599711
27 1 3.4662108 0.47865412
-1.8724608 7 2 3.7003961
0.51842713 -1.8877797 14 3
3.9651299 0.56407255 -1.907369 20
4 4.26337 0.61469305 -1.9293002
14 5 4.5701227 0.66655648
-1.9404702 18 6 4.9696455
0.73531181 -1.973034 21 7
5.4079924 0.80963033 -2.0015979 28
8 5.9246221 0.89824528 -2.0361774
48 9 6.526988 1.0004195
-2.0719564 40 10 7.1733661
1.1097177 -2.0930502 23 11
7.3644109 1.1413996 -1.9622861 21
12 7.7992182 1.213666 -1.8815292
39 13 8.5902052 1.348314
-1.8598585 52 14 9.5702457
1.5135238 -1.8375682 42 15
10.928722 1.7919164 -1.8323746 44
16 13.090075 2.1695466 -1.8790746
40 17 13.928788 2.3118401
-1.6632106 28 18 15.221151
2.5329552 -1.4548142 27 19
16.34342 2.7262962 -1.1743879 33
20 17.405994 2.9057138 -0.83918267
27 21 18.512325 3.0953627
-0.45253965 19 22 19.293139
3.2244792 -0.017052799 19 23
0.0063979831 -0.12818648 -0.0011000147 3
24 0.0063979831 -0.12818648 -0.0011000147
3 25 0.0063979831 -0.12818648
-0.0011000147 3 26 0.0063979831
-0.12818648 -0.0011000147 10 27
0.0063979831 -0.12818648 -0.0011000147 3
28 0.0063979831 -0.12818648 -0.0011000147
11 29 0.0063979831 -0.12818648
-0.0011000147 9 30 0.0063979831
-0.12818648 -0.0011000147 17 31
0.45894805 -0.050979163 -0.27386162 31
0 0.45827249 -0.051204506 -0.25912651
28 1 3.4677563 0.45926648
-1.8715129 9 2 3.7021735
0.49773991 -1.886873 14 3
3.9743686 0.54240859 -1.909932 20
4 4.2710695 0.59176594 -1.9309217
14 5 4.581748 0.64258885
-1.94355 18 6 4.9800377
0.70788342 -1.9752113 21 7
5.4187121 0.78066015 -2.003644 26
8 5.9323349 0.864788 -2.0368075
48 9 6.537106 0.96378511
-2.0731382 40 10 7.1877527
1.0712924 -2.0952477 25 11
7.3715701 1.0993257 -1.9622717 20
12 7.7969446 1.1688383 -1.8792006
44 13 8.6081591 1.3008088
-1.8619291 48 14 9.5814686
1.4590924 -1.8379222 44 15
10.974254 1.7371948 -1.8382199 44
16 13.135825 2.1024735 -1.8838099
40 17 13.932376 2.2328327
-1.6620175 35 18 15.269124
2.4539876 -1.4579729 24 19
16.48299 2.6564176 -1.1832501 29
20 17.475782 2.817965 -0.84171045
28 21 18.571898 2.9962144
-0.45351464 20 22 19.337172
3.1215827 -0.017039273 27 23
0.0063592722 -0.12796985 -0.0010983429 3
24 0.0063592722 -0.12796985 -0.0010983429
3 25 0.0063592722 -0.12796985
-0.0010983429 3 26 0.0063592722
-0.12796985 -0.0010983429 10 27
0.0063592722 -0.12796985 -0.0010983429 3
28 0.0063592722 -0.12796985 -0.0010983429
11 29 0.0063592722 -0.12796985
-0.0010983429 9 30 0.0063592722
-0.12796985 -0.0010983429 17 31
0.45254546 -0.054461449 -0.26977253 32
0 0.46730992 -0.052197345 -0.26402995
18 1 3.4762976 0.44043779
-1.8743265 10 2 3.7109482
0.47761053 -1.8895611 14 3
3.9746141 0.51925689 -1.9082096 20
4 4.2734184 0.56643522 -1.9300973
14 5 4.5860977 0.61652184
-1.9435403 18 6 4.9865656
0.67980403 -1.9759297 21 7
5.4239397 0.74881703 -2.0036325 27
8 5.943512 0.83182275 -2.0387208
48 9 6.5338407 0.92491388
-2.0701387 38 10 7.1965995
1.0292838 -2.0957863 26 11
7.3670402 1.0554128 -1.9592085 22
12 7.798707 1.1219879 -1.8777971
44 13 8.6010008 1.2476534
-1.8585725 48 14 9.5771074
1.4004585 -1.8353 42 15
10.996437 1.6763257 -1.8401537 49
16 13.185928 2.0310409 -1.8891042
38 17 13.896688 2.1450317
-1.6561521 29 18 15.309237
2.3707201 -1.4603803 27 19
16.595638 2.5748332 -1.1901342 30
20 17.614662 2.7377234 -0.8475548
24 21 18.658596 2.9009557
-0.45516193 23 22 19.504114
3.0313473 -0.017124815 25 23
20.352415 3.1651745 0.46069279 1
24 0.0063765086 -0.12777762 -0.0010971411
3 25 0.0063765086 -0.12777762
-0.0010971411 3 26 0.0063765086
-0.12777762 -0.0010971411 10 27
0.0063765086 -0.12777762 -0.0010971411 3
28 0.0063765086 -0.12777762 -0.0010971411
11 29 0.0063765086 -0.12777762
-0.0010971411 9 30 0.0063765086
-0.12777762 -0.0010971411 17 31
0.44619885 -0.057968121 -0.26568416 32
0 0.46944439 -0.054456145 -0.26500869
18 1 3.476094 0.41961199
-1.8724375 11 2 3.7180078
0.45642778 -1.8913507 14 3
3.9799907 0.49694017 -1.9090576 20
4 4.2809124 0.542732 -1.9317178
14 5 4.5904102 0.58960551
-1.9435306 18 6 4.9929571
0.65171754 -1.976648 21 7
5.4363089 0.71906382 -2.0063634 28
8 5.9507675 0.79823214 -2.0393498
48 9 6.5529933 0.88967794
-2.0743065 40 10 7.1936378
0.98668534 -2.0930078 23 11
7.3774972 1.0139021 -1.9602097 21
12 7.7961135 1.075968 -1.8754677
47 13 8.5640821 1.1931353
-1.8489553 52 14 9.6165066
1.3521397 -1.8412316 44 15
11.018623 1.6133245 -1.8420874 49
16 13.198097 1.9555544 -1.8890789
40 17 13.925569 2.0654619
-1.657994 28 18 15.298176
2.2762561 -1.4579153 29 19
16.59119 2.4766235 -1.1886917 29
20 17.743784 2.6512802 -0.85292423
24 21 18.740862 2.8042333
-0.45671219 21 22 19.555531
2.9247658 -0.017116057 25 23
0.0063621923 -0.12750505 -0.001095265 3
24 0.0063621923 -0.12750505 -0.001095265
3 25 0.0063621923 -0.12750505
-0.001095265 3 26 0.0063621923
-0.12750505 -0.001095265 10 27
0.0063621923 -0.12750505 -0.001095265 3
28 0.0063621923 -0.12750505 -0.001095265
11 29 0.0063621923 -0.12750505
-0.001095265 9 30 0.0063621923
-0.12750505 -0.001095265 17 31
0.46017003 -0.058103908 -0.27385432 31
0 0.46811306 -0.057075333 -0.2640253
18 1 3.4895508 0.40204617
-1.8780721 14 2 3.7194324
0.43569472 -1.8904437 13 3
3.9781809 0.47348294 -1.9064778 19
4 4.2865186 0.51865029 -1.9325235
13 5 4.6034241 0.56563449
-1.9473825 18 6 5.0010276
0.62383384 -1.9780955 21 7
5.4392133 0.6878317 -2.0056663 26
8 5.9597588 0.76481938 -2.0406215
49 9 6.5719361 0.854267
-2.0784743 40 10 7.2055812
0.94646013 -2.0946515 23 11
7.3801322 0.97120041 -1.9591788 18
12 7.8029127 1.0313878 -1.8754523
44 13 8.5814333 1.1440949
-1.8510252 48 14 9.6542645
1.2997413 -1.8467909 44 15
11.014448 1.5500833 -1.8397852 57
16 13.225468 1.882304 -1.891293
30 17 13.974844 1.9937879
-1.662405 33 18 15.344748
2.1963675 -1.4610717 26 19
16.653219 2.3886647 -1.1920475 28
20 17.824173 2.5625069 -0.85601878
25 21 18.753429 2.6962121
-0.4565804 22 22 19.580606
2.8138213 -0.017085329 27 23
0.0063234824 -0.12728842 -0.0010934742 3
24 0.0063234824 -0.12728842 -0.0010934742
3 25 0.0063234824 -0.12728842
-0.0010934742 3 26 0.0063234824
-0.12728842 -0.0010934742 10 27
0.0063234824 -0.12728842 -0.0010934742 3
28 0.0063234824 -0.12728842 -0.0010934742
11 29 0.0063234824 -0.12728842
-0.0010934742 9 30 0.0063234824
-0.12728842 -0.0010934742 17 31
0.46224827 -0.060338032 -0.27487358 31
0 0.46849027 -0.059570283 -0.26402253
18 1 3.4891062 0.38112572
-1.8761833 15 2 3.7261951
0.4144417 -1.8922328 14 3
3.9905946 0.45150623 -1.9107543 20
4 4.2919645 0.49450552 -1.9333292
14 5 4.6111178 0.5391804
-1.948917 18 6 5.0072527
0.59475452 -1.9788136 21 7
5.4493966 0.65763062 -2.0077114 27
8 5.9686394 0.73038942 -2.0418918
49 9 6.5776024 0.81564069
-2.07846 36 10 7.2154427
0.90587556 -2.0957422 23 11
7.3826151 0.92723334 -1.9581468 21
12 7.8094077 0.98687351 -1.8754357
44 13 8.5788507 1.0936764
-1.8489202 48 14 9.6953621
1.2492183 -1.8530934 42 15
11.020304 1.4845381 -1.8391119 49
16 13.24661 1.8080369 -1.8926668
38 17 14.000931 1.9133041
-1.6640126 33 18 15.218351
2.0854337 -1.447737 32 19
16.631845 2.2881093 -1.1894748 29
20 17.930691 2.470468 -0.86034316
23 21 18.789606 2.5882869
-0.45702446 22 22 19.68623
2.7144332 -0.017120074 30 23
0.0063407179 -0.12709618 -0.0010923914 3
24 0.0063407179 -0.12709618 -0.0010923914
3 25 0.0063407179 -0.12709618
-0.0010923914 3 26 0.0063407179
-0.12709618 -0.0010923914 10 27
0.0063407179 -0.12709618 -0.0010923914 3
28 0.0063407179 -0.12709618 -0.0010923914
11 29 0.0063407179 -0.12709618
-0.0010923914 9 30 0.0063407179
-0.12709618 -0.0010923914 17 31
0.46429494 -0.062491812 -0.27589253 47
0 0.46713457 -0.062245421 -0.26303911
18 1 3.4937062 0.36161157
-1.8771154 15 2 3.7292769
0.39325559 -1.8922247 14 3
3.9920533 0.42856118 -1.9098883 20
4 4.2936206 0.46987644 -1.9325043
14 5 4.6148496 0.51291686
-1.9489069 18 6 5.0168166
0.56695467 -1.9809898 21 7
5.457499 0.62706923 -2.0090706 28
8 5.9734921 0.69631261 -2.0418794
48 9 6.581018 0.77779388
-2.0778491 38 10 7.2345715
0.86645395 -2.099597 26 11
7.390501 0.88531059 -1.9586397 18
12 7.802146 0.94035566 -1.8721808
44 13 8.6167507 1.0488105
-1.8555816 40 14 9.714797
1.1953411 -1.8553051 47 15
11.041121 1.4231324 -1.8410449 47
16 13.273184 1.7343347 -1.8948803
40 17 13.975058 1.8278875
-1.6595474 28 18 15.242632
1.9998766 -1.4488314 24 19
16.659245 2.1947331 -1.1904298 30
20 17.984882 2.373203 -0.86220354
24 21 18.893963 2.4929206
-0.45914891 20 22 19.696278
2.6007862 -0.01707666 22 23
0.006302007 -0.12687956 -0.0010907198 3
24 0.006302007 -0.12687956 -0.0010907198
3 25 0.006302007 -0.12687956
-0.0010907198 3 26 0.006302007
-0.12687956 -0.0010907198 10 27
0.006302007 -0.12687956 -0.0010907198 3
28 0.006302007 -0.12687956 -0.0010907198
11 29 0.006302007 -0.12687956
-0.0010907198 9 30 0.006302007
-0.12687956 -0.0010907198 38 31
