# .PCD v0.7 - Point Cloud Data file format
VERSION 0.7
FIELDS x y z intensity
SIZE 4 4 4 4
TYPE F F F F
COUNT 1 1 1 1
WIDTH 1488
HEIGHT 1
VIEWPOINT 0 0 0 1 0 0 0
POINTS 1488
DATA ascii
23 5 -3.6066995 -1.0102772
-1.5633434 26 6 -3.8370194
-1.0726657 -1.5546863 42 7
-4.0466809 -1.1299074 -1.5282096 36
8 -4.2774582 -1.1920462 -1.4994884
41 9 -4.6049829 -1.2807425
-1.4906225 37 10 -4.9875822
-1.3852893 -1.483534 27 11
-5.4918737 -1.5221372 -1.4911933 23
12 -6.0441103 -1.6729276 -1.4853051
63 13 -6.7007198 -1.8509312
-1.4770404 60 14 -7.4907799
-2.0650396 -1.46347 38 15
-8.9065428 -2.4933126 -1.5190817 73
16 -10.338989 -2.8905451 -1.5083551
50 17 -12.554853 -3.5029473
-1.5215973 16 18 -15.117534
-4.2099814 -1.4637388 18 19
-19.312885 -5.3715363 -1.401451 6
20 -20.51144 -5.6964951 -0.99249136
20 21 -20.499332 -5.6854353
-0.493725 15 22 -20.461544
-5.6710725 0.00010818573 20 23
-20.438684 -5.6570997 0.49240804 18
24 -20.061922 -5.5455108 0.97062224
5 25 -19.03561 -5.2587709
1.3808523 6 26 0.00010548424
-0.011239021 -0.00010508574 10 27
-17.228863 -4.7477608 2.0896249 27
28 -18.568588 -5.112607 2.7064478
2 29 0.00010548424 -0.011239021
-0.00010508574 100 30 -17.70249
-4.8613648 3.4583495 18 31
-2.8229408 -0.78079814 -1.7354099 20
0 -2.8397193 -0.784307 -1.653771
14 1 -2.9903107 -0.82474726
-1.6479182 25 2 -3.1356256
-0.86313361 -1.6315274 32 3
-3.286768 -0.90291405 -1.6121374 29
4 -3.4596827 -0.94922918 -1.5961028
23 5 -3.6213477 -0.99170548
-1.567196 25 6 -3.8287182
-1.0463988 -1.5488648 40 7
-4.0639524 -1.109224 -1.5323117 39
8 -4.2786446 -1.1656753 -1.4975673
42 9 -4.628799 -1.2584602
-1.4959834 42 10 -5.0177088
-1.3622848 -1.4901477 27 11
-5.5060945 -1.4917699 -1.4927118 23
12 -6.0592155 -1.6393557 -1.4866875
63 13 -6.6790485 -1.8034772
-1.4699717 55 14 -7.4948854
-2.0195715 -1.4619884 39 15
-8.9073448 -2.4381492 -1.5168127 62
16 -10.204435 -2.7896812 -1.4863683
75 17 -12.555574 -3.4251544
-1.5192791 17 18 -15.097255
-4.1106176 -1.459468 20 19
-19.318399 -5.2532725 -1.399641 7
20 -20.362558 -5.5289388 -0.9837389
20 21 -20.352198 -5.5184741
-0.48941234 15 22 -20.308409
-5.5028729 0.00010206746 21 23
-20.287491 -5.4896021 0.487993 16
24 -19.94301 -5.38908 0.96335095
5 25 -18.915209 -5.1083903
1.3699654 7 26 0.00010911802
-0.010966099 -0.00010259223 10 27
-17.865938 -4.8122377 2.1635008 17
28 0.00010911802 -0.010966099 -0.00010259223
11 29 -17.885632 -4.8074999
3.0424309 25 30 -17.688385
-4.747921 3.4502001 11 31
-2.8157232 -0.76118863 -1.7282668 26
0 -2.8424315 -0.76724434 -1.6527898
14 1 -2.9898121 -0.80591351
-1.6451 26 2 -3.14396
-0.84570032 -1.6333201 30 3
-3.2883406 -0.88286972 -1.6104255 32
4 -3.4509411 -0.92532146 -1.5895936
24 5 -3.6072838 -0.96540064
-1.5587159 27 6 -3.8291993
-1.0226601 -1.5466814 42 7
-4.0684042 -1.0851471 -1.5316269 39
8 -4.3072515 -1.1466132 -1.5052485
46 9 -4.6044989 -1.2232964
-1.4858552 39 10 -5.0421162
-1.3375683 -1.4951087 27 11
-5.4939914 -1.4544134 -1.4871395 25
12 -6.0571532 -1.6012691 -1.4839212
68 13 -6.6779232 -1.7617451
-1.467476 60 14 -7.5063238
-1.9761503 -1.4619883 48 15
-8.9231091 -2.3871331 -1.5171371 65
16 -10.22791 -2.7326868 -1.4874823
55 17 -12.551992 -3.3464944
-1.5164973 17 18 -15.093658
-4.016232 -1.4568691 19 19
-19.323179 -5.135046 -1.3978304 6
20 -20.216309 -5.3643489 -0.97517282
22 21 -20.199915 -5.3524561
-0.48500794 15 22 -20.163767
-5.3391461 9.740793e-05 21 23
-20.146624 -5.3270741 0.48385632 18
24 -19.826836 -5.2352901 0.95626539
6 25 -18.795732 -4.9600739
1.3592188 7 26 0.00013895283
-0.010775414 -0.00010119654 10 27
-17.649233 -4.6449952 2.1339929 16
28 0.00013895283 -0.010775414 -0.00010119654
11 29 -17.735394 -4.657712
3.0122724 15 30 -18.015789
-4.7244201 3.5087085 15 31
-2.823293 -0.74559247 -1.730306 28
0 -2.8501348 -0.75151062 -1.6547476
15 1 -3.0011938 -0.79019791
-1.6488538 25 2 -3.1400621
-0.82512385 -1.628832 32 3
-3.2933285 -0.86366671 -1.6104237 31
4 -3.4667628 -0.9079268 -1.5944728
22 5 -3.6038203 -0.94205594
-1.5548601 27 6 -3.825913
-0.99805558 -1.5430433 40 7
-4.0817685 -1.0633259 -1.5343622 36
8 -4.3081632 -1.1201096 -1.5033271
46 9 -4.6224856 -1.1993593
-1.4894285 42 10 -4.9975653
-1.294883 -1.4796722 28 11
-5.5021691 -1.4225012 -1.487139 26
12 -6.0587173 -1.5641915 -1.4820756
63 13 -6.7106318 -1.728892
-1.4724655 55 14 -7.4946761
-1.9268759 -1.4575449 36 15
-8.8946304 -2.3245101 -1.5100038 55
16 -10.247239 -2.674469 -1.4880391
74 17 -12.553708 -3.2694235
-1.5144106 16 18 -15.172364
-3.9435351 -1.4622582 23 19
-19.307922 -5.0119929 -1.3946253 7
20 -20.057236 -5.1986241 -0.96604782
21 21 -20.056103 -5.190855
-0.48083496 19 22 -20.004307
-5.1737332 9.2270166e-05 21 23
-19.991024 -5.1628833 0.47939476 17
24 -19.692093 -5.0785189 0.94834113
6 25 -18.688652 -4.8167601
1.349449 7 26 0.00011456867
-0.010556716 -9.8851982e-05 10 27
0.00011456867 -0.010556716 -9.8851982e-05 3
28 0.00011456867 -0.010556716 -9.8851982e-05
11 29 -17.74272 -4.550384
3.0090272 20 30 -17.993088
-4.6077209 3.4990773 24 31
-2.8225052 -0.72780198 -1.7272437 28
0 -2.8526824 -0.73439562 -1.653766
15 1 -2.9953783 -0.7700659
-1.6432188 26 2 -3.1498587
-0.8081004 -1.6315231 32 3
-3.2946544 -0.84354383 -1.6087112 29
4 -3.4595857 -0.88396424 -1.5887777
22 5 -3.6126897 -0.92194229
-1.5564004 25 6 -3.8225179
-0.97350705 -1.5394047 40 7
-4.0934439 -1.0402497 -1.5364128 36
8 -4.3089943 -1.0937161 -1.5014056
43 9 -4.6274409 -1.1719992
-1.4888312 39 10 -5.0069556
-1.2654343 -1.4802227 27 11
-5.4802094 -1.3830309 -1.4790339 23
12 -6.0546107 -1.5246891 -1.4788474
57 13 -6.7188001 -1.6883295
-1.4720492 55 14 -7.5860028
-1.9021097 -1.4730967 43 15
-8.8867426 -2.2677259 -1.5064381 58
16 -10.235981 -2.6066489 -1.4841437
50 17 -12.551067 -3.1915135
-1.5118607 17 18 -15.10595
-3.8334637 -1.4537153 21 19
-19.30633 -4.8892956 -1.3923959 6
20 -19.912498 -5.0388169 -0.95766687
20 21 -19.901386 -5.0286365
-0.47643003 20 22 -19.865866
-5.0122991 8.7508219e-05 21 23
-19.83811 -5.0016327 0.4750264 17
24 -19.569803 -4.926856 0.94106954
5 25 -18.5891 -4.6735415
1.340237 8 26 0.00011820244
-0.010283794 -9.6358475e-05 10 27
0.00011820244 -0.010283794 -9.6358475e-05 3
28 0.00011820244 -0.010283794 -9.6358475e-05
11 29 -18.054642 -4.5160313
3.057339 10 30 0.00011820244
-0.010283794 -9.6358475e-05 34 31
-2.821712 -0.709602 -1.7241819 25
0 -2.8551965 -0.7168169 -1.6527854
15 1 -2.9998083 -0.75204414
-1.6432176 26 2 -3.1510787
-0.78830719 -1.6297269 33 3
-3.3011861 -0.82477725 -1.6095653 28
4 -3.4681396 -0.86470038 -1.5904031
22 5 -3.6216326 -0.90117246
-1.557941 25 6 -3.817199
-0.94858062 -1.5350382 42 7
-4.0810361 -1.0119164 -1.5295714 34
8 -4.3206592 -1.0699587 -1.503325
43 9 -4.6395721 -1.1464895
-1.4906181 45 10 -5.0103416
-1.2354512 -1.4791195 28 11
-5.456059 -1.3434575 -1.4704236 23
12 -6.0481057 -1.4858775 -1.4751577
63 13 -6.6710777 -1.636626
-1.4595741 50 14 -7.5792866
-1.8552996 -1.4697635 43 15
-8.8923092 -2.212846 -1.5051415 52
16 -10.139269 -2.5198112 -1.4680007
65 17 -12.552375 -3.1124551
-1.5097741 16 18 -15.101288
-3.7368813 -1.4511164 20 19
-19.305014 -4.7707157 -1.3903071 8
20 -19.779005 -4.8802757 -0.94984579
19 21 -19.772699 -4.8750205
-0.47267386 18 22 -19.729227
-4.8570108 8.3114202e-05 21 23
-19.706205 -4.8440928 0.47116917 16
24 -19.454191 -4.7786832 0.93417084
6 25 -18.481926 -4.5335059
1.3306067 10 26 9.3818286e-05
-0.010065096 -9.4013914e-05 10 27
9.3818286e-05 -0.010065096 -9.4013914e-05 3
28 9.3818286e-05 -0.010065096 -9.4013914e-05
11 29 -20.221312 -4.9367557
3.4195328 4 30 9.3818286e-05
-0.010065096 -9.4013914e-05 17 31
-2.8171856 -0.69155049 -1.7190795 28
0 -2.8574505 -0.70019722 -1.6518037
15 1 -3.0056334 -0.73549753
-1.6441553 26 2 -3.153667
-0.77007163 -1.6288279 32 3
-3.3093424 -0.80633694 -1.6112751 28
4 -3.485419 -0.8474434 -1.596096
23 5 -3.6552777 -0.88760126
-1.5702729 22 6 -3.82429
-0.92677748 -1.5357649 46 7
-4.0739131 -0.98510653 -1.5247824 32
8 -4.3267155 -1.0448449 -1.5033238
46 9 -4.6479373 -1.1199751
-1.4912124 42 10 -5.0135918
-1.20547 -1.4780163 27 11
-5.5050607 -1.3216113 -1.481565 25
12 -6.050776 -1.4494637 -1.4737746
63 13 -6.7091484 -1.6036093
-1.465811 65 14 -7.6742187
-1.8300425 -1.4860562 56 15
-8.887248 -2.1587214 -1.5022228 52
16 -10.269022 -2.4890642 -1.4847015
40 17 -12.538585 -3.0346758
-1.5060647 16 18 -15.100571
-3.6471207 -1.4490744 21 19
-19.312746 -4.6546035 -1.3889145 8
20 -19.638813 -4.7293868 -0.94183791
21 21 -19.62541 -4.7189255
-0.46850064 20 22 -19.583714
-4.701704 7.834284e-05 22 23
-19.565636 -4.6937103 0.4671725 17
24 -19.32007 -4.6277747 0.92643446
5 25 -18.395102 -4.3999276
1.3225111 7 26 9.7450749e-05
-0.0097921733 -9.1639609e-05 10 27
9.7450749e-05 -0.0097921733 -9.1639609e-05 3
28 9.7450749e-05 -0.0097921733 -9.1639609e-05
11 29 -20.125381 -4.7868938
3.3984532 1 30 9.7450749e-05
-0.0097921733 -9.1639609e-05 17 31
-2.8144934 -0.67302936 -1.7149975 27
0 -2.86151 -0.68305397 -1.6518025
15 1 -3.0047462 -0.71617758
-1.6413366 25 2 -3.1511438
-0.74946946 -1.6252372 32 3
-3.3122594 -0.78607655 -1.6104181 28
4 -3.4830723 -0.8254438 -1.5928408
23 5 -3.6298239 -0.85853785
-1.557168 22 6 -3.8387425
-0.90597165 -1.5394012 42 7
-4.0959682 -0.9652434 -1.5309372 42
8 -4.2848182 -1.0077306 -1.4866767
39 9 -4.6098185 -1.0817264
-1.4769133 42 10 -5.0615973
-1.185922 -1.4901428 28 11
-5.5202594 -1.2904625 -1.4835905 25
12 -6.0608878 -1.4147648 -1.4742345
73 13 -6.6705637 -1.5537052
-1.4554156 60 14 -7.7324648
-1.7966232 -1.4953128 41 15
-8.8805838 -2.1012356 -1.4989814 52
16 -10.223375 -2.4155986 -1.4760736
65 17 -12.533072 -2.95454
-1.5032825 14 18 -15.057922
-3.5422826 -1.4429458 11 19
7.3066592e-05 -0.0095734755 -8.9295056e-05 97
20 -19.487511 -4.5707059 -0.93327087
20 21 -19.48358 -4.5626202
-0.46446672 20 22 -19.437052
-4.5481596 7.3922674e-05 20 23
-19.417824 -4.5364885 0.46299019 16
24 -19.224493 -4.4843669 0.92056024
5 25 -18.293739 -4.2643781
1.3134387 9 26 7.3066592e-05
-0.0095734755 -8.9295056e-05 10 27
7.3066592e-05 -0.0095734755 -8.9295056e-05 3
28 7.3066592e-05 -0.0095734755 -8.9295056e-05
11 29 7.3066592e-05 -0.0095734755
-8.9295056e-05 9 30 7.3066592e-05
-0.0095734755 -8.9295056e-05 17 31
-2.8132439 -0.6554088 -1.7119353 19
0 -2.856786 -0.66434824 -1.646903
14 1 -3.0104818 -0.69905889
-1.6422745 25 2 -3.1518533
-0.73028362 -1.6234412 32 3
-3.3129923 -0.76653481 -1.6087059 29
4 -3.4930577 -0.80639982 -1.5952802
23 5 -3.6508543 -0.84105688
-1.5641041 25 6 -3.8327782
-0.88179088 -1.5350351 39 7
-4.0849161 -0.93765086 -1.5247796 36
8 -4.3420458 -0.99535543 -1.5046023
43 9 -4.660409 -1.0659207
-1.4912105 45 10 -5.0777016
-1.1586316 -1.4928977 30 11
-5.5273561 -1.2593836 -1.4835893 23
12 -6.0119166 -1.3668017 -1.4604012
52 13 -6.6218481 -1.5032706
-1.4429405 50 14 -7.7403994
-1.7528149 -1.4949428 46 15
-8.7828894 -2.0246675 -1.4804999 69
16 -10.296907 -2.3701606 -1.4847019
45 17 -12.524662 -2.8763831
-1.5002685 16 18 -15.062442
-3.4517381 -1.4414618 7 19
-19.075089 -4.3653178 -1.3681356 15
20 -19.363434 -4.4239907 -0.92610121
17 21 -19.3508 -4.4175763
-0.46071038 16 22 -19.312704
-4.4017711 7.0262387e-05 21 23
-19.287605 -4.3890009 0.45927247 16
24 -19.118654 -4.3471532 0.91431433
6 25 -18.183668 -4.1283121
1.3038089 9 26 0.00013092064
-0.0093285674 -8.7631211e-05 10 27
0.00013092064 -0.0093285674 -8.7631211e-05 3
28 0.00013092064 -0.0093285674 -8.7631211e-05
11 29 0.00013092064 -0.0093285674
-8.7631211e-05 9 30 0.00013092064
-0.0093285674 -8.7631211e-05 17 31
-2.8151457 -0.63903975 -1.7109131 19
0 -2.8604486 -0.64816576 -1.6469011
13 1 -3.0109282 -0.68069619
-1.6403954 26 2 -3.1488545
-0.71088892 -1.6198503 32 3
-3.3190849 -0.74758303 -1.6095597 31
4 -3.5046935 -0.78760016 -1.5985328
23 5 -3.6448121 -0.81739801
-1.5594773 26 6 -3.835937
-0.85906929 -1.5343063 42 7
-4.0773592 -0.9110651 -1.5199903 32
8 -4.3571067 -0.97135109 -1.5078015
48 9 -4.6479626 -1.0338953
-1.4852519 42 10 -5.0522995
-1.1221113 -1.4835255 25 11
-5.4949646 -1.2176161 -1.4729527 23
12 -6.0236659 -1.3316677 -1.4613223
57 13 -6.7167974 -1.481433
-1.4616518 50 14 -7.7313929
-1.7023801 -1.4912394 46 15
-8.8845024 -1.9956175 -1.495739 62
16 -10.356718 -2.3209629 -1.4913822
45 17 -12.503648 -2.7979412
-1.4958622 15 18 -15.040607
-3.3582611 -1.4375621 7 19
-18.945978 -4.2209401 -1.3571178 17
20 -19.230562 -4.2771502 -0.91855854
20 21 -19.219698 -4.2712536
-0.45700073 20 22 -19.17557
-4.2544332 6.5713815e-05 21 23
-19.156292 -4.2431111 0.45555478 18
24 -19.011404 -4.204143 0.90797573
5 25 -18.098021 -3.9992795
1.2959934 10 26 0.00010653518
-0.0091098687 -8.5405853e-05 10 27
0.00010653518 -0.0091098687 -8.5405853e-05 3
28 0.00010653518 -0.0091098687 -8.5405853e-05
11 29 0.00010653518 -0.0091098687
-8.5405853e-05 9 30 -18.232077
-3.9988358 3.5164666 1 31
-2.8138573 -0.6205461 -1.7078519 18
0 -2.8693802 -0.63158858 -1.6498393
14 1 -3.0184653 -0.66278136
-1.6422712 25 2 -3.1565707
-0.69212615 -1.6216433 33 3
-3.3111506 -0.72442466 -1.6035691 29
4 -3.5022762 -0.76440042 -1.5952772
23 5 -3.6514623 -0.79527283
-1.5602472 27 6 -3.846529
-0.83655238 -1.536487 40 7
-4.0552406 -0.87999564 -1.5097286 44
8 -4.3480263 -0.94129413 -1.5026792
46 9 -4.637321 -1.0016226
-1.4798892 42 10 -5.0533552
-1.0897615 -1.4818707 28 11
-5.5174279 -1.1870364 -1.4770032 25
12 -6.0468745 -1.297887 -1.4650103
57 13 -6.7525096 -1.4458578
-1.4674722 40 14 -7.6666236
-1.6390171 -1.4767982 36 15
-8.8135567 -1.9230782 -1.481797 55
16 -10.320356 -2.2465432 -1.4841458
60 17 -12.493239 -2.7153902
-1.4926162 15 18 -15.02574
-3.2585719 -1.4342201 7 19
-18.926483 -4.0952678 -1.3539121 18
20 -19.111757 -4.1282606 -0.91166782
19 21 -19.100714 -4.1224465
-0.45356947 19 22 -19.064266
-4.107625 6.1861589e-05 22 23
-19.03126 -4.0935626 0.45197603 25
24 -18.91748 -4.0622163 0.90228862
6 25 -17.999119 -3.8621163
1.2872009 9 26 0.00011016895
-0.0088369465 -8.2912346e-05 10 27
0.00011016895 -0.0088369465 -8.2912346e-05 3
28 0.00011016895 -0.0088369465 -8.2912346e-05
11 29 0.00011016895 -0.0088369465
-8.2912346e-05 9 30 0.00011016895
-0.0088369465 -8.2912346e-05 17 31
-2.8105252 -0.60318005 -1.7037694 18
0 -2.8676982 -0.61419111 -1.6468983
14 1 -3.0202243 -0.64586759
-1.641331 25 2 -3.1638448
-0.67503452 -1.6234369 32 3
-3.3097672 -0.7045359 -1.6010007 29
4 -3.4991546 -0.74369419 -1.5920219
22 5 -3.6430221 -0.77258033
-1.5548497 26 6 -3.8492594
-0.81446439 -1.5357586 39 7
-4.0893021 -0.86394614 -1.520672 36
8 -4.3363276 -0.91403449 -1.4969157
43 9 -4.6650558 -0.98102045
-1.4870373 39 10 -5.0516086
-1.0606475 -1.4796647 27 11
-5.5161405 -1.1553487 -1.4749763 26
12 -6.0573392 -1.266783 -1.465932
63 13 -6.7752404 -1.4134241
-1.4707981 45 14 -7.675354
-1.5972699 -1.4767973 36 15
-8.7835312 -1.865032 -1.4749885 62
16 -10.309004 -2.1855719 -1.4808069
65 17 -12.482929 -2.6400702
-1.4896016 16 18 -15.000821
-3.1653831 -1.4301342 8 19
-18.901482 -3.9827464 -1.3505661 20
20 -18.985165 -3.9934258 -0.90459079
20 21 -18.980522 -3.9855309
-0.45018384 20 22 -18.933458
-3.9722695 5.8208847e-05 21 23
-18.910185 -3.9604516 0.44858402 22
24 -18.800283 -3.9306653 0.89567035
5 25 -17.906399 -3.7409284
1.2791053 10 26 8.5784784e-05
-0.0086182486 -8.0567792e-05 10 27
8.5784784e-05 -0.0086182486 -8.0567792e-05 3
28 8.5784784e-05 -0.0086182486 -8.0567792e-05
11 29 8.5784784e-05 -0.0086182486
-8.0567792e-05 9 30 8.5784784e-05
-0.0086182486 -8.0567792e-05 17 31
-2.8122027 -0.5863772 -1.7027477 22
0 -2.8728433 -0.5977897 -1.6478765
16 1 -3.0221055 -0.62786025
-1.6403905 25 2 -3.1781573
-0.65869313 -1.6288193 28 3
-3.3172936 -0.68594021 -1.6027101 31
4 -3.4837649 -0.71869397 -1.5830728
21 5 -3.6437523 -0.75063491
-1.5533067 25 6 -3.8483515
-0.7909627 -1.5335752 42 7
-4.0851212 -0.83760452 -1.5172508 36
8 -4.3173556 -0.88394451 -1.4885917
39 9 -4.6761703 -0.95500559
-1.4888233 42 10 -5.0916762
-1.0372378 -1.4895862 27 11
-5.5131526 -1.1214494 -1.4724433 23
12 -6.0818496 -1.2340459 -1.4700813
63 13 -6.725903 -1.3613871
-1.4583234 70 14 -7.6711349
-1.548755 -1.4742051 36 15
-8.8810444 -1.8320563 -1.4895788 55
16 -10.315948 -2.1229715 -1.479972
50 17 -12.472537 -2.5627313
-1.4865875 16 18 -14.997249
-3.0743504 -1.4280927 8 19
-18.664694 -3.817287 -1.3320156 20
20 -18.858969 -3.8535082 -0.89751434
19 21 -18.850288 -3.8448741
-0.44656658 20 22 -18.815514
-3.830955 5.495052e-05 23 23
-18.795471 -3.8234353 0.44533128 27
24 -18.703125 -3.7978995 0.88998425
5 25 -17.799179 -3.6082675
1.2698951 9 26 8.9417255e-05
-0.0083453255 -7.8193487e-05 10 27
8.9417255e-05 -0.0083453255 -7.8193487e-05 3
28 8.9417255e-05 -0.0083453255 -7.8193487e-05
11 29 8.9417255e-05 -0.0083453255
-7.8193487e-05 9 30 8.9417255e-05
-0.0083453255 -7.8193487e-05 17 31
-2.8122208 -0.56878597 -1.7007058 18
0 -2.8763008 -0.58054531 -1.6478752
17 1 -3.0222454 -0.60903752
-1.6385118 25 2 -3.1837344
-0.63993895 -1.629715 29 3
-3.3157947 -0.66556162 -1.6001424 29
4 -3.4931748 -0.69946653 -1.5855118
21 5 -3.6444476 -0.72808933
-1.5517641 24 6 -3.8601451
-0.76995254 -1.5364829 42 7
-4.0824099 -0.81235695 -1.5145135 36
8 -4.3651004 -0.86727226 -1.5033156
46 9 -4.6872029 -0.9289645
-1.4906093 42 10 -5.0899863
-1.0062393 -1.4873804 28 11
-5.5403914 -1.0935507 -1.4780136 23
12 -6.0754166 -1.1961578 -1.4668531
63 13 -6.7755728 -1.3318502
-1.467471 55 14 -7.6680274
-1.5034436 -1.4719834 35 15
-8.8162622 -1.7640924 -1.4769337 62
16 -10.26965 -2.0516961 -1.4716225
60 17 -12.462174 -2.4834538
-1.4835728 17 18 -14.985888
-2.9793053 -1.4253075 8 19
-18.643278 -3.7010574 -1.3289491 21
20 -18.742338 -3.7138691 -0.89090264
19 21 -18.726921 -3.7074003
-0.44313484 19 22 -18.680254
-3.6913726 5.1776638e-05 21 23
-18.668694 -3.6823459 0.44179961 23
24 -18.603086 -3.6660724 0.88420433
6 25 -17.721724 -3.4863398
1.2629162 10 26 6.5033091e-05
-0.0081266277 -7.5848926e-05 10 27
6.5033091e-05 -0.0081266277 -7.5848926e-05 3
28 6.5033091e-05 -0.0081266277 -7.5848926e-05
11 29 6.5033091e-05 -0.0081266277
-7.5848926e-05 9 30 6.5033091e-05
-0.0081266277 -7.5848926e-05 17 31
-2.8136327 -0.55253261 -1.6996841 11
0 -2.8794701 -0.56420559 -1.6478732
16 1 -3.0203912 -0.5909043
-1.635693 26 2 -3.1836584
-0.62122762 -1.6279192 31 3
-3.3160026 -0.64553547 -1.5984292 29
4 -3.5096805 -0.68151009 -1.5912044
23 5 -3.6429894 -0.70645237
-1.54945 22 6 -3.8589642
-0.74645448 -1.5342997 42 7
-4.081459 -0.78757167 -1.5124604 34
8 -4.332725 -0.83477688 -1.4905102
43 9 -4.6867537 -0.90062147
-1.4888211 45 10 -5.0805001
-0.97377956 -1.4829694 28 11
-5.5198922 -1.0563457 -1.4709224 23
12 -6.089869 -1.1623724 -1.4686961
63 13 -6.7622128 -1.2873771
-1.4628956 60 14 -7.6748395
-1.4573298 -1.4716127 38 15
-8.8278465 -1.7149611 -1.4772577 55
16 -10.207381 -1.9780307 -1.4610456
45 17 -12.454344 -2.409462
-1.4810222 17 18 -14.961181
-2.88745 -1.4214076 8 19
-18.548651 -3.5712123 -1.3207207 23
20 -18.60969 -3.5795534 -0.88363874
20 21 -18.608452 -3.5726175
-0.4398427 21 22 -18.577427
-3.5599034 4.8884609e-05 23 23
-18.551441 -3.5515876 0.43854681 24
24 -18.506075 -3.5362539 0.87861097
6 25 -17.61598 -3.3601315
1.2539843 9 26 6.8666865e-05
-0.0078537054 -7.3355426e-05 10 27
6.8666865e-05 -0.0078537054 -7.3355426e-05 3
28 6.8666865e-05 -0.0078537054 -7.3355426e-05
11 29 6.8666865e-05 -0.0078537054
-7.3355426e-05 9 30 6.8666865e-05
-0.0078537054 -7.3355426e-05 17 31
-2.8100429 -0.53426915 -1.6956015 12
0 -2.8758504 -0.54561353 -1.6439532
18 1 -3.0220201 -0.57240891
-1.6347529 26 2 -3.1802096
-0.60082889 -1.6243286 32 3
-3.3286121 -0.62726033 -1.602706 29
4 -3.5098748 -0.66039145 -1.5895765
23 5 -3.6488562 -0.68493819
-1.5502201 25 6 -3.850435
-0.72092158 -1.5292062 44 7
-4.0766349 -0.7621122 -1.5090389 36
8 -4.3505907 -0.81124336 -1.4949907
42 9 -4.6525698 -0.86528134
-1.4763092 39 10 -5.0746408
-0.94219065 -1.4796607 28 11
-5.5260086 -1.023369 -1.4709216 23
12 -6.0791321 -1.123894 -1.464546
47 13 -6.771369 -1.248569
-1.4633113 55 14 -7.6849623
-1.4132131 -1.4719826 38 15
-8.8281469 -1.6605361 -1.4756362 58
16 -10.218532 -1.9190255 -1.4610463
40 17 -12.44684 -2.3313162
-1.4784722 17 18 -14.932983
-2.7900476 -1.4171362 8 19
-18.462946 -3.444382 -1.3131894 23
20 -18.49305 -3.4433532 -0.87712055
20 21 -18.489687 -3.436064
-0.43654987 20 22 -18.452011
-3.4256771 4.5589441e-05 23 23
-18.42857 -3.4147334 0.43515441 26
24 -18.39897 -3.4025803 0.87255245
6 25 -17.533005 -3.2396126
1.2467276 10 26 9.8501681e-05
-0.0076630204 -7.1959723e-05 10 27
9.8501681e-05 -0.0076630204 -7.1959723e-05 3
28 9.8501681e-05 -0.0076630204 -7.1959723e-05
11 29 9.8501681e-05 -0.0076630204
-7.1959723e-05 9 30 9.8501681e-05
-0.0076630204 -7.1959723e-05 17 31
-2.8079238 -0.51696038 -1.6925399 14
0 -2.8840544 -0.52975583 -1.6468909
18 1 -3.0217578 -0.55413753
-1.6328734 26 2 -3.1853564
-0.5825718 -1.6252241 32 3
-3.335598 -0.60908127 -1.6044158 28
4 -3.5028367 -0.63800365 -1.5846938
25 5 -3.6436241 -0.66202652
-1.5463641 25 6 -3.8433583
-0.69724703 -1.5248405 42 7
-4.075357 -0.73735857 -1.5069853 34
8 -4.3531756 -0.78634477 -1.4943488
43 9 -4.6854763 -0.84413159
-1.4852444 37 10 -5.0912952
-0.91475183 -1.4829674 28 11
-5.5278153 -0.99152255 -1.4699069 25
12 -6.1065631 -1.0923934 -1.469617
68 13 -6.7782092 -1.2104777
-1.4633102 60 14 -7.5920796
-1.3522296 -1.4527267 39 15
-8.7520351 -1.5939648 -1.4613706 58
16 -10.260571 -1.865551 -1.4654994
45 17 -12.440521 -2.2558556
-1.4761529 16 18 -14.903651
-2.695636 -1.4128648 9 19
-18.333164 -3.3109291 -1.3025901 26
20 -18.384689 -3.3135908 -0.87106764
20 21 -18.378668 -3.3091788
-0.43348846 20 22 -18.349333
-3.2972903 4.2620166e-05 22 23
-18.32193 -3.2857745 0.43218112 23
24 -18.287844 -3.2764118 0.86640036
6 25 -17.441296 -3.1187959
1.2389115 9 26 7.4117517e-05
-0.0074443221 -6.9615169e-05 10 27
7.4117517e-05 -0.0074443221 -6.9615169e-05 3
28 7.4117517e-05 -0.0074443221 -6.9615169e-05
11 29 7.4117517e-05 -0.0074443221
-6.9615169e-05 9 30 7.4117517e-05
-0.0074443221 -6.9615169e-05 17 31
-2.8141325 -0.50165534 -1.6945789 3
0 -2.8835084 -0.51279926 -1.6449298
18 1 -3.029983 -0.53792566
-1.6356887 25 2 -3.1814585
-0.56329829 -1.6216332 33 3
-3.3425205 -0.59024787 -1.6061261 31
4 -3.5009713 -0.61664617 -1.5822524
23 5 -3.6563284 -0.64301658
-1.5502169 27 6 -3.8601558
-0.67708039 -1.5299307 35 7
-4.0702071 -0.71206719 -1.5035645 34
8 -4.3575644 -0.76106203 -1.494348
46 9 -4.7015347 -0.81885517
-1.4888173 37 10 -5.0945525
-0.88490242 -1.4824153 27 11
-5.5276351 -0.95850563 -1.4683872 26
12 -6.1127291 -1.0569863 -1.4696161
68 13 -6.7697678 -1.1673757
-1.4599836 60 14 -7.6115699
-1.3089013 -1.4549477 39 15
-8.7724009 -1.5468872 -1.463316 58
16 -10.294467 -1.8103105 -1.4688401
50 17 -12.423495 -2.1809838
-1.4726747 17 18 -14.883129
-2.6060135 -1.4095222 8 19
-18.2929 -3.194823 -1.2984073 28
20 -18.263144 -3.1863835 -0.86445564
18 21 -18.257526 -3.1787992
-0.43019524 21 22 -18.230038
-3.1674597 3.9721617e-05 24 23
-18.200064 -3.1589808 0.4288823 26
24 -18.178417 -3.1487474 0.86034167
8 25 -17.358654 -3.0007851
1.2317942 12 26 7.7751291e-05
-0.0071714004 -6.7121662e-05 10 27
7.7751291e-05 -0.0071714004 -6.7121662e-05 3
28 7.7751291e-05 -0.0071714004 -6.7121662e-05
11 29 7.7751291e-05 -0.0071714004
-6.7121662e-05 9 30 7.7751291e-05
-0.0071714004 -6.7121662e-05 17 31
-2.8187282 -0.48498794 -1.6955971 2
0 -2.8864183 -0.49542564 -1.6449285
18 1 -3.0330729 -0.51970333
-1.6356872 25 2 -3.1847
-0.54417306 -1.6216316 30 3
-3.335268 -0.56838369 -1.6009903 29
4 -3.5080168 -0.59685636 -1.5838782
23 5 -3.6563954 -0.62045205
-1.5486736 22 6 -3.8474832
-0.65115058 -1.5233825 44 7
-4.0705538 -0.6877777 -1.5021944 39
8 -4.3339558 -0.73027992 -1.484743
41 9 -4.708107 -0.79099959
-1.4894121 39 10 -5.1128249
-0.85751945 -1.4862728 27 11
-5.5465951 -0.92767638 -1.4719312 23
12 -6.0879512 -1.0164284 -1.4622375
57 13 -6.8072286 -1.133299
-1.4666362 60 14 -7.6538615
-1.2706108 -1.4616126 36 15
-8.796998 -1.497209 -1.465909 52
16 -10.292981 -1.7488391 -1.4671704
40 17 -12.332335 -2.0894811
-1.4603826 26 18 -14.87473
-2.5134907 -1.4072942 9 19
-18.18115 -3.0673704 -1.2892016 26
20 -18.149689 -3.0555439 -0.85821575
20 21 -18.14389 -3.0480454
-0.42708766 20 22 -18.109861
-3.039115 3.696702e-05 24 23
-18.09025 -3.0293267 0.42586216 23
24 -18.070608 -3.0195611 0.85437644
13 25 -17.263424 -2.8819251
1.2238393 10 26 5.3365828e-05
-0.0069527016 -6.4896303e-05 10 27
5.3365828e-05 -0.0069527016 -6.4896303e-05 3
28 5.3365828e-05 -0.0069527016 -6.4896303e-05
11 29 5.3365828e-05 -0.0069527016
-6.4896303e-05 9 30 5.3365828e-05
-0.0069527016 -6.4896303e-05 17 31
-2.8163362 -0.46768284 -1.692535 2
0 -2.8944018 -0.4794071 -1.6478652
18 1 -3.0238125 -0.49997985
-1.6291125 26 2 -3.1807144
-0.52446395 -1.6180406 34 3
-3.3312995 -0.54777211 -1.5975664 31
4 -3.5095904 -0.57612211 -1.5830629
23 5 -3.6616952 -0.59943676
-1.5494429 25 6 -3.8511732
-0.62877083 -1.5233809 42 7
-4.0910649 -0.66678852 -1.5083499 39
8 -4.3492494 -0.70684046 -1.4885831
43 9 -4.6729894 -0.75730985
-1.4769003 39 10 -5.1043086
-0.82572472 -1.4824135 27 11
-5.5288548 -0.89179134 -1.4658523 23
12 -6.0782938 -0.97869617 -1.4585479
63 13 -6.7807884 -1.0885838
-1.4595661 60 14 -7.5833344
-1.2139339 -1.4468008 35 15
-8.8014975 -1.4456956 -1.4652609 52
16 -10.25401 -1.6813312 -1.4602116
45 17 -12.163748 -1.9888191
-1.4390442 39 18 -14.841694
-2.4198942 -1.4028372 8 19
-18.064548 -2.9406397 -1.2797172 28
20 -18.036766 -2.9297194 -0.85206985
23 21 -18.028814 -2.9219515
-0.42398077 21 22 -17.998625
-2.9138451 3.3712608e-05 24 23
-17.988895 -2.9058132 0.42307407 25
24 -17.957502 -2.8943472 0.84822488
18 25 -17.179226 -2.7660916
1.2167221 13 26 5.6999597e-05
-0.0066797794 -6.2402796e-05 10 27
5.6999597e-05 -0.0066797794 -6.2402796e-05 3
28 5.6999597e-05 -0.0066797794 -6.2402796e-05
11 29 5.6999597e-05 -0.0066797794
-6.2402796e-05 9 30 5.6999597e-05
-0.0066797794 -6.2402796e-05 17 31
-2.8104205 -0.4498682 -1.6874326 2
0 -2.8936036 -0.46196249 -1.6459048
19 1 -3.0405352 -0.48451701
-1.6366227 25 2 -3.1624522
-0.50260174 -1.6072707 32 3
-3.3414693 -0.52945459 -1.6009878 31
4 -3.4947507 -0.55282766 -1.5749267
22 5 -3.6413529 -0.57445669
-1.539421 25 6 -3.8638761
-0.60776991 -1.5270171 39 7
-4.0836387 -0.64123279 -1.5042444 39
8 -4.3756909 -0.68505001 -1.4962646
43 9 -4.6583304 -0.72725213
-1.4709424 42 10 -5.1108608
-0.79636836 -1.4829633 25 11
-5.547226 -0.86181623 -1.4693973 23
12 -6.0818315 -0.94313681 -1.4580863
57 13 -6.8255396 -1.05527
-1.4678824 60 14 -7.5960183
-1.1708964 -1.4479105 36 15
-8.7043705 -1.378175 -1.4477521 58
16 -10.208692 -1.6133959 -1.4524184
55 17 -12.214249 -1.9247204
-1.4436835 47 18 -14.817978
-2.3283501 -1.3993087 8 19
-17.955004 -2.8166497 -1.2707909 28
20 -17.928926 -2.8061457 -0.84620261
24 21 -17.912964 -2.7972875
-0.42087293 21 22 -17.890608
-2.7905526 3.1948683e-05 24 23
-17.874895 -2.7817562 0.4200075 25
24 -17.853355 -2.7719936 0.84253919
19 25 -17.092283 -2.6510582
1.2094648 10 26 8.6835717e-05
-0.0064890953 -6.0887902e-05 10 27
8.6835717e-05 -0.0064890953 -6.0887902e-05 3
28 8.6835717e-05 -0.0064890953 -6.0887902e-05
11 29 8.6835717e-05 -0.0064890953
-6.0887902e-05 9 30 8.6835717e-05
-0.0064890953 -6.0887902e-05 17 31
-2.8061593 -0.43243259 -1.6833503 2
0 -2.891017 -0.44427678 -1.642964
22 1 -3.0415154 -0.46649432
-1.6356819 25 2 -3.1634779
-0.48386833 -1.6063718 31 3
-3.3408582 -0.50943935 -1.599275 32
4 -3.4978397 -0.53247607 -1.5749254
22 5 -3.6518226 -0.55433625
-1.5425034 24 6 -3.8709731
-0.58582419 -1.5284704 39 7
-4.0909915 -0.61805594 -1.5056109 36
8 -4.3795323 -0.65963805 -1.4962635
36 9 -4.7379632 -0.71139073
-1.4947702 42 10 -5.111486
-0.76609445 -1.4818599 28 11
-5.5482831 -0.82905161 -1.4683827 25
12 -6.0736594 -0.90587246 -1.4548575
63 13 -6.7850399 -1.0088276
-1.4579017 60 14 -7.6336741
-1.1314998 -1.4538351 38 15
-8.776515 -1.3375703 -1.4584515 58
16 -10.17078 -1.5472637 -1.4457386
40 17 -12.207416 -1.8514485
-1.4415963 37 18 -14.797635
-2.237741 -1.3961517 9 19
-17.842634 -2.6937084 -1.2617255 30
20 -17.820288 -2.6839473 -0.84033549
26 21 -17.810104 -2.6760788
-0.41808972 23 22 -17.787672
-2.669513 2.9591285e-05 25 23
-17.767973 -2.6602271 0.41712716 25
24 -17.728697 -2.6480763 0.83592159
19 25 -17.000654 -2.5365214
1.201929 15 26 9.046818e-05
-0.0062161721 -5.8513597e-05 10 27
9.046818e-05 -0.0062161721 -5.8513597e-05 3
28 9.046818e-05 -0.0062161721 -5.8513597e-05
11 29 9.046818e-05 -0.0062161721
-5.8513597e-05 9 30 9.046818e-05
-0.0062161721 -5.8513597e-05 17 31
-2.803442 -0.41529563 -1.6802884 2
0 -2.8917623 -0.42713115 -1.6419828
24 1 -3.0283813 -0.44651029
-1.6272305 33 2 -3.1750124
-0.46669775 -1.6108572 32 3
-3.343713 -0.48996443 -1.5992734 31
4 -3.4935894 -0.51104778 -1.5716699
22 5 -3.6476438 -0.53197753
-1.539418 30 6 -3.8631804
-0.56169504 -1.5241041 40 7
-4.0906816 -0.59369326 -1.5042417 34
8 -4.3869429 -0.63471401 -1.4975431
46 9 -4.6682172 -0.67336375
-1.4715356 42 10 -5.1215515
-0.73725551 -1.483512 28 11
-5.5471478 -0.79604733 -1.4668627 23
12 -6.0748968 -0.87012911 -1.4539344
57 13 -6.7558169 -0.96458966
-1.4504168 60 14 -7.6283755
-1.0856715 -1.4516128 39 15
-8.77036 -1.2847654 -1.4561814 58
16 -10.189311 -1.4898688 -1.4471298
50 17 -12.209952 -1.7797896
-1.4406695 34 18 -14.782693
-2.1482563 -1.3935511 8 19
-17.725521 -2.5715697 -1.2523804 27
20 -17.708849 -2.5628517 -0.83437562
24 21 -17.708412 -2.5564647
-0.41535324 22 22 -17.672037
-2.5480962 2.656882e-05 22 23
-17.660248 -2.5400736 0.4142465 25
24 -17.624945 -2.5287485 0.83032924
19 25 -16.918171 -2.4245441
1.1950908 12 26 6.6084023e-05
-0.0059974743 -5.6169039e-05 10 27
6.6084023e-05 -0.0059974743 -5.6169039e-05 3
28 6.6084023e-05 -0.0059974743 -5.6169039e-05
11 29 6.6084023e-05 -0.0059974743
-5.6169039e-05 9 30 6.6084023e-05
-0.0059974743 -5.6169039e-05 17 31
-2.8092809 -0.39887622 -1.6823264 2
0 -2.9011159 -0.41067678 -1.6458998
32 1 -3.0326853 -0.42848247
-1.6281674 37 2 -3.1901128
-0.44932842 -1.617137 32 3
-3.3410962 -0.46968263 -1.5967044 31
4 -3.5019209 -0.49079737 -1.574109
24 5 -3.652499 -0.51036757
-1.5401878 25 6 -3.8589067
-0.53821683 -1.5211935 40 7
-4.0997005 -0.56999719 -1.5062927 34
8 -4.3811479 -0.60790062 -1.4943401
48 9 -4.7268438 -0.65374112
-1.4888107 39 10 -5.1009851
-0.70324612 -1.4763452 27 11
-5.5746222 -0.76699483 -1.4729395 23
12 -6.0837708 -0.83435076 -1.4548557
63 13 -6.8368592 -0.93572342
-1.4666324 55 14 -7.6324797
-1.0412318 -1.4512423 38 15
-8.7504587 -1.228695 -1.4516419 47
16 -10.184203 -1.4272467 -1.4451815
40 17 -12.226155 -1.7079355
-1.441366 37 18 -14.759588
-2.0553648 -1.3902086 8 19
-17.629736 -2.4507725 -1.24457 28
20 -17.604967 -2.4410791 -0.82878762
28 21 -17.607914 -2.4383631
-0.41266313 24 22 -17.573881
-2.4274025 2.4701558e-05 23 23
-17.552172 -2.4181776 0.4113664 25
24 -17.512489 -2.4095879 0.82436448
19 25 -16.835388 -2.3106596
1.1882529 13 26 6.9717797e-05
-0.0057245521 -5.3675536e-05 10 27
6.9717797e-05 -0.0057245521 -5.3675536e-05 3
28 6.9717797e-05 -0.0057245521 -5.3675536e-05
11 29 6.9717797e-05 -0.0057245521
-5.3675536e-05 9 30 6.9717797e-05
-0.0057245521 -5.3675536e-05 17 31
-2.8062699 -0.38223454 -1.6792645 3
0 -2.9050622 -0.3944824 -1.6468779
31 1 -3.0472405 -0.41297433
-1.6347387 36 2 -3.1854539
-0.43031073 -1.6135458 35 3
-3.3419189 -0.45002341 -1.5958478 31
4 -3.5046546 -0.47042319 -1.5741078
24 5 -3.6461616 -0.48850796
-1.5363317 28 6 -3.8674886
-0.51646376 -1.5233738 39 7
-4.1103754 -0.54709244 -1.5090268 39
8 -4.3938847 -0.58365422 -1.4975404
43 9 -4.713479 -0.62404341
-1.4834476 42 10 -5.1125336
-0.67460126 -1.4785489 28 11
-5.542439 -0.72985709 -1.463315 23
12 -6.0556431 -0.79476935 -1.4470155
63 13 -6.7801285 -0.88682193
-1.4533259 55 14 -7.6482406
-0.99694598 -1.4530931 36 15
-8.7356176 -1.1766715 -1.4480748 55
16 -10.14313 -1.3617868 -1.438223
45 17 -12.280779 -1.6454141
-1.4467005 37 18 -14.741187
-1.968767 -1.3874232 9 19
-17.51893 -2.332449 -1.2357826 28
20 -17.495523 -2.3262341 -0.82301301
27 21 -17.494743 -2.3199413
-0.40969455 23 22 -17.456671
-2.3086548 2.2986194e-05 23 23
-17.440453 -2.3034549 0.40843949 25
24 -17.413174 -2.2936704 0.81905222
19 25 -16.751429 -2.2007494
1.1814151 10 26 4.533233e-05
-0.0055058533 -5.1450177e-05 10 27
4.533233e-05 -0.0055058533 -5.1450177e-05 3
28 4.533233e-05 -0.0055058533 -5.1450177e-05
11 29 4.533233e-05 -0.0055058533
-5.1450177e-05 9 30 4.533233e-05
-0.0055058533 -5.1450177e-05 17 31
-2.8033564 -0.36471799 -1.6762025 3
0 -2.9090765 -0.37722248 -1.6478556
33 1 -3.0251083 -0.39153811
-1.6215919 32 2 -3.1879308
-0.4111684 -1.6135441 34 3
-3.3391042 -0.42922559 -1.593279 29
4 -3.5091193 -0.45018303 -1.5749191
24 5 -3.6507983 -0.46687362
-1.537101 29 6 -3.8685634
-0.49303284 -1.5226455 39 7
-4.0891728 -0.52014893 -1.5001333 44
8 -4.3841295 -0.55573028 -1.4930571
38 9 -4.7208247 -0.59633648
-1.4846385 47 10 -5.0991726
-0.64277089 -1.4735858 25 11
-5.556242 -0.69798559 -1.4658468 23
12 -6.0793681 -0.76209342 -1.4516264
68 13 -6.7793136 -0.84684986
-1.4520774 70 14 -7.6519074
-0.95245731 -1.4527221 38 15
-8.6856441 -1.1173288 -1.4386717 62
16 -10.093767 -1.2958733 -1.4301517
55 17 -12.26861 -1.5695418
-1.4441494 39 18 -14.730878
-1.8782609 -1.3853798 9 19
-17.419256 -2.2170279 -1.2278323 29
20 -17.392065 -2.2074034 -0.81751817
27 21 -17.395088 -2.2016096
-0.40705034 24 22 -17.364447
-2.1946523 2.0538886e-05 23 23
-17.342722 -2.1857643 0.40583837 22
24 -17.303505 -2.17472 0.81327337
21 25 -16.662842 -2.0914443
1.174298 12 26 4.89661e-05
-0.0052329316 -4.8956674e-05 10 27
4.89661e-05 -0.0052329316 -4.8956674e-05 3
28 4.89661e-05 -0.0052329316 -4.8956674e-05
11 29 4.89661e-05 -0.0052329316
-4.8956674e-05 9 30 4.89661e-05
-0.0052329316 -4.8956674e-05 17 31
-2.803699 -0.34812403 -1.6751803 3
0 -2.911145 -0.36021495 -1.6478542
29 1 -3.0290101 -0.37406164
-1.6225291 27 2 -3.1901963
-0.39254758 -1.6135426 35 3
-3.3342192 -0.40949973 -1.5898553 29
4 -3.5080066 -0.42932749 -1.5732908
23 5 -3.6607184 -0.44648755
-1.5401829 30 6 -3.8860531
-0.4729875 -1.5284636 40 7
-4.0994925 -0.49722159 -1.5028682 36
8 -4.3889999 -0.53122753 -1.4936963
39 9 -4.735436 -0.57105196
-1.4882113 42 10 -5.1141787
-0.61453503 -1.4768928 26 11
-5.5811758 -0.66921675 -1.471417 25
12 -6.0565939 -0.72365779 -1.4451697
57 13 -6.735321 -0.80296898
-1.4416811 65 14 -7.5965452
-0.90229404 -1.4412421 35 15
-8.7036667 -1.0685078 -1.4406166 62
16 -10.073499 -1.2341515 -1.426255
50 17 -12.301076 -1.5015762
-1.4469336 34 18 -14.711767
-1.7896249 -1.3825943 9 19
-17.314783 -2.1023009 -1.2196034 29
20 -17.299334 -2.0942948 -0.8125819
27 21 -17.291952 -2.090368
-0.40435982 24 22 -17.251705
-2.0793667 1.9120338e-05 25 23
-17.237831 -2.0716345 0.40309718 22
24 -17.212244 -2.0654964 0.80842751
23 25 -16.591398 -1.9853067
1.1684371 10 26 2.4581941e-05
-0.0050142333 -4.6612116e-05 10 27
2.4581941e-05 -0.0050142333 -4.6612116e-05 3
28 2.4581941e-05 -0.0050142333 -4.6612116e-05
11 29 2.4581941e-05 -0.0050142333
-4.6612116e-05 9 30 2.4581941e-05
-0.0050142333 -4.6612116e-05 17 31
-2.8072701 -0.33239841 -1.6761988 3
0 -2.9079111 -0.34313843 -1.6449136
29 1 -3.0485706 -0.35898232
-1.6319172 33 2 -3.1869717
-0.37388557 -1.610849 33 3
-3.3383152 -0.3902742 -1.5907093 29
4 -3.5157976 -0.40949371 -1.57573
24 5 -3.6796296 -0.42769715
-1.547119 25 6 -3.8868077
-0.45013416 -1.5277349 42 7
-4.1041293 -0.47359511 -1.5035509 32
8 -4.3956985 -0.50612187 -1.4949753
48 9 -4.721529 -0.5416345
-1.4828486 45 10 -5.1099834
-0.58400679 -1.4746865 27 11
-5.5522394 -0.6331467 -1.4628054 23
12 -6.0335507 -0.68549865 -1.4387133
57 13 -6.730248 -0.7616955
-1.4396011 60 14 -7.5568013
-0.85195309 -1.4327247 39 15
-8.738883 -1.023092 -1.4454796 55
16 -10.047018 -1.1720008 -1.4215224
65 17 -12.277662 -1.4289751
-1.4432226 41 18 -14.695788
-1.7042475 -1.3801799 9 19
-17.217581 -1.9897931 -1.2119317 30
20 -17.193613 -1.9839842 -0.80708712
28 21 -17.198418 -1.9784234
-0.40190053 25 22 -17.161976
-1.9681975 1.6843613e-05 33 23
-17.143797 -1.9630957 0.40063509 22
24 -17.116613 -1.9539274 0.80339473
20 25 -16.505377 -1.878454
1.1615996 12 26 8.2434686e-05
-0.0047693243 -4.5067471e-05 10 27
8.2434686e-05 -0.0047693243 -4.5067471e-05 3
28 8.2434686e-05 -0.0047693243 -4.5067471e-05
11 29 8.2434686e-05 -0.0047693243
-4.5067471e-05 9 30 8.2434686e-05
-0.0047693243 -4.5067471e-05 17 31
-2.8005898 -0.31456664 -1.6710967 3
0 -2.9028761 -0.32486552 -1.6409937
32 1 -3.0559292 -0.34122592
-1.6347319 33 2 -3.187362
-0.35458735 -1.6099501 30 3
-3.3459487 -0.37079638 -1.5932744 28
4 -3.5235608 -0.38960573 -1.5781684
24 5 -3.6783879 -0.40525925
-1.5455762 26 6 -3.8838472
-0.42625028 -1.5255508 42 7
-4.1086836 -0.44994247 -1.5042331 36
8 -4.4174795 -0.48186517 -1.5013762
46 9 -4.7246499 -0.51336569
-1.4828471 39 10 -5.115169
-0.55453217 -1.4752363 26 11
-5.5751162 -0.60200709 -1.4678689 25
12 -6.0412388 -0.65088272 -1.4396343
57 13 -6.7519937 -0.72454876
-1.4433426 60 14 -7.5772171
-0.80986208 -1.4356862 39 15
-8.7859688 -0.97559136 -1.4522883 55
16 -10.087001 -1.1175958 -1.4262544
45 17 -12.262218 -1.3532848
-1.4404395 43 18 -14.673916
-1.6133294 -1.3772085 10 19
-16.744787 -1.8374293 -1.1778936 20
20 5.8050529e-05 -0.004550626 -4.2722913e-05
114 21 -17.090559 -1.8632324
-0.39911753 25 22 -17.053753
-1.8562095 1.5414333e-05 33 23
-17.035841 -1.8482149 0.39784825 23
24 -17.014648 -1.8399287 0.79808235
22 25 -16.430573 -1.7740525
1.1555983 12 26 5.8050529e-05
-0.004550626 -4.2722913e-05 10 27
5.8050529e-05 -0.004550626 -4.2722913e-05 3
28 5.8050529e-05 -0.004550626 -4.2722913e-05
11 29 5.8050529e-05 -0.004550626
-4.2722913e-05 9 30 5.8050529e-05
-0.004550626 -4.2722913e-05 17 31
-2.7989266 -0.29784399 -1.6690543 3
0 -2.9168587 -0.30917156 -1.6478492
30 1 -3.0542479 -0.32300073
-1.6328529 32 2 -3.2106602
-0.33819112 -1.620717 31 3
-3.3336105 -0.34977841 -1.5864276 28
4 -3.5293183 -0.36945087 -1.5797943
23 5 -3.6732833 -0.38310388
-1.5424917 25 6 -3.8713706
-0.40214089 -1.5197299 42 7
-4.120512 -0.42698941 -1.5076519 39
8 -4.3956394 -0.45366967 -1.4930518
43 9 -4.7123384 -0.48435888
-1.4780796 39 10 -5.1182442
-0.52484441 -1.4752352 30 11
-5.5514789 -0.56697327 -1.4607776 23
12 -6.0468168 -0.61605293 -1.4400942
63 13 -6.7696266 -0.68678117
-1.4462525 60 14 -7.4937267
-0.75714022 -1.4190221 35 15
-8.7050591 -0.91569036 -1.4380213 58
16 -10.118847 -1.0619707 -1.4298729
36 17 -12.297418 -1.2852789
-1.443687 37 18 -14.647294
-1.5249345 -1.3738655 10 19
-16.782883 -1.7436799 -1.1798478 16
20 -16.869799 -1.7466929 -0.79087961
71 21 -16.999521 -1.7541202
-0.39675155 26 22 -16.966599
-1.7477632 1.3328489e-05 33 23
-16.94475 -1.7395283 0.39547908 23
24 -16.915607 -1.7305335 0.79295671
22 25 -16.160667 -1.6506766
1.1359257 30 26 3.3666369e-05
-0.0043319282 -4.0378356e-05 10 27
3.3666369e-05 -0.0043319282 -4.0378356e-05 3
28 3.3666369e-05 -0.0043319282 -4.0378356e-05
11 29 3.3666369e-05 -0.0043319282
-4.0378356e-05 9 30 3.3666369e-05
-0.0043319282 -4.0378356e-05 17 31
-2.8022733 -0.28168458 -1.6700733 3
0 -2.9150789 -0.2918219 -1.6458887
31 1 -3.0560327 -0.30517799
-1.6328512 32 2 -3.2089412
-0.31909218 -1.6189208 32 3
-3.3373516 -0.33053032 -1.5872817 29
4 -3.5369079 -0.34882811 -1.582233
23 5 -3.699295 -0.36400244
-1.5525109 25 6 -3.8699055
-0.37926844 -1.5182736 40 7
-4.1173444 -0.40176955 -1.5055985 39
8 -4.3943815 -0.42773557 -1.49177
46 9 -4.7283382 -0.45828661
-1.4822485 39 10 -5.0963531
-0.49186268 -1.4680676 32 11
-5.5565758 -0.53493404 -1.4612826 23
12 -6.0464339 -0.57956678 -1.4391712
63 13 -6.7521172 -0.64438343
-1.441678 65 14 -7.6017547
-0.72229052 -1.4386477 39 15
-8.6944065 -0.86376679 -1.4354273 62
16 -10.115074 -1.0007187 -1.4284811
40 17 -12.274972 -1.2113528
-1.4402078 43 18 -14.630064
-1.4377993 -1.3714505 11 19
-16.93189 -1.6574535 -1.1896147 31
20 -16.905386 -1.6518364 -0.79209214
30 21 -16.893925 -1.6447676
-0.39406019 26 22 -16.861216
-1.6356829 1.2178592e-05 35 23
-16.841022 -1.6307074 0.39283186 23
24 -16.815903 -1.6223756 0.78783101
22 25 -16.231689 -1.560472
1.1402495 16 26 3.7298832e-05
-0.0040590055 -3.8004047e-05 10 27
3.7298832e-05 -0.0040590055 -3.8004047e-05 3
28 3.7298832e-05 -0.0040590055 -3.8004047e-05
11 29 3.7298832e-05 -0.0040590055
-3.8004047e-05 9 30 3.7298832e-05
-0.0040590055 -3.8004047e-05 17 31
-2.810703 -0.26543227 -1.6741523 3
0 -2.9132919 -0.27392638 -1.643927
33 1 -3.0507436 -0.28614274
-1.6290938 32 2 -3.2000699
-0.29888958 -1.6135354 31 3
-3.3355701 -0.31077632 -1.585569 28
4 -3.5315676 -0.32755089 -1.5789775
22 5 -3.6940174 -0.34111232
-1.5494255 22 6 -3.8961399
-0.35888565 -1.5277286 42 7
-4.1232986 -0.37814721 -1.506965 36
8 -4.3891745 -0.40150967 -1.489208
39 9 -4.7308416 -0.43081769
-1.4822476 37 10 -5.0933433
-0.46175092 -1.4664124 33 11
-5.5325608 -0.50023282 -1.45419 23
12 -6.0341454 -0.54312539 -1.4354812
63 13 -6.7634096 -0.60714728
-1.4433403 60 14 -7.5175567
-0.67178935 -1.4219836 52 15
-8.7210054 -0.81394482 -1.438993 55
16 -10.130545 -0.94311863 -1.4298718
40 17 -12.240323 -1.134461
-1.4353378 41 18 -14.610534
-1.3482121 -1.3688506 10 19
-16.833853 -1.5498421 -1.1820822 32
20 -16.811388 -1.5418559 -0.78724915
32 21 -16.805517 -1.5383495
-0.39178699 26 22 -16.770731
-1.529301 1.0723161e-05 35 23
-16.752823 -1.5217648 0.39055562 23
24 -16.71949 -1.5158135 0.78289151
23 25 -16.198685 -1.4629923
1.137319 14 26 -15.559378
-1.4026746 1.4574819 6 27
1.2914675e-05 -0.0038403075 -3.565949e-05 3
28 1.2914675e-05 -0.0038403075 -3.565949e-05
11 29 1.2914675e-05 -0.0038403075
-3.565949e-05 9 30 1.2914675e-05
-0.0038403075 -3.565949e-05 17 31
-2.8018408 -0.24859342 -1.6680294 3
0 -2.916472 -0.25757843 -1.6449053
31 1 -3.0487986 -0.26860353
-1.6272141 33 2 -3.2034459
-0.28092906 -1.6144313 32 3
-3.3463178 -0.29208922 -1.5898453 28
4 -3.4495971 -0.29979524 -1.5415568
26 5 -3.690325 -0.31980535
-1.547112 26 6 -3.9018123
-0.3365767 -1.5291826 42 7
-4.1160274 -0.35340276 -1.5035437 34
8 -4.4140635 -0.37791082 -1.496889
42 9 -4.7389131 -0.40383324
-1.4840338 42 10 -5.1188769
-0.43411204 -1.4730265 28 11
-5.5314665 -0.46782443 -1.4531761 23
12 -6.0643325 -0.51040286 -1.4419353
63 13 -6.7356868 -0.56419283
-1.4366862 55 14 -7.6056013
-0.63387829 -1.4379053 36 15
-8.6801758 -0.76107073 -1.4315351 52
16 -10.088448 -0.88045466 -1.4231914
40 17 -12.171284 -1.0593426
-1.4265233 45 18 -14.586042
-1.2636622 -1.3658791 10 19
-16.735123 -1.4434139 -1.1745497 31
20 -16.710291 -1.4383602 -0.78212577
30 21 -16.704493 -1.4319925
-0.38923538 26 22 -16.669628
-1.423115 9.6730264e-06 35 23
-16.649412 -1.4184816 0.38795426 21
24 -16.622412 -1.410352 0.77795267
23 25 -16.117294 -1.3619248
1.1310394 15 26 -15.454244
-1.3006041 1.4468908 6 27
1.6548445e-05 -0.0035673855 -3.3165987e-05 3
28 1.6548445e-05 -0.0035673855 -3.3165987e-05
11 29 1.6548445e-05 -0.0035673855
-3.3165987e-05 9 30 1.6548445e-05
-0.0035673855 -3.3165987e-05 17 31
-2.8015778 -0.23162532 -1.6670073 3
0 -2.9162004 -0.23992762 -1.6439241
27 1 -3.0590734 -0.25098392
-1.6319076 33 2 -3.2068338
-0.26179451 -1.6153264 30 3
-3.3461499 -0.2718426 -1.5889883 29
4 -3.5277588 -0.28583354 -1.5757209
34 5 -3.6976256 -0.29809555
-1.5494229 25 6 -3.892571
-0.31230304 -1.5248164 42 7
-4.0842266 -0.3267923 -1.4912299 52
8 -4.4180918 -0.35164481 -1.4975282
43 9 -4.7736001 -0.37798181
-1.4941593 45 10 -5.123188
-0.40453982 -1.4735764 26 11
-5.5553284 -0.43644914 -1.4587468 25
12 -6.0690904 -0.47544751 -1.4423959
63 13 -6.7660847 -0.52724141
-1.4425066 45 14 -7.5248513
-0.58337969 -1.4219818 43 15
-8.7179451 -0.71206677 -1.4370468 52
16 -10.059715 -0.81939846 -1.4184599
45 17 -12.181283 -0.98719066
-1.4269873 34 18 -14.567451
-1.1748253 -1.3634646 10 19
-16.641741 -1.3386853 -1.1674354 32
20 -16.618896 -1.3310188 -0.77746898
32 21 -16.613016 -1.3246875
-0.38691527 27 22 -16.585789
-1.3196203 8.2255383e-06 35 23
-16.561897 -1.3119326 0.38572526 21
24 -16.536892 -1.3041409 0.77357286
23 25 -16.053284 -1.2632842
1.1260159 15 26 4.6384568e-05
-0.0033767014 -3.1651092e-05 24 27
4.6384568e-05 -0.0033767014 -3.1651092e-05 3
28 4.6384568e-05 -0.0033767014 -3.1651092e-05
11 29 4.6384568e-05 -0.0033767014
-3.1651092e-05 9 30 4.6384568e-05
-0.0033767014 -3.1651092e-05 17 31
-2.8028085 -0.2152568 -1.6670061 4
0 -2.9105744 -0.22237235 -1.6400034
30 1 -3.0569565 -0.23284641
-1.6300275 32 2 -3.2011619
-0.24254458 -1.611735 32 3
-3.3620892 -0.25342008 -1.5958318 28
4 -3.5457115 -0.26650673 -1.5830408
32 5 -3.6772065 -0.27493912
-1.5401711 29 6 -3.9073279
-0.29058024 -1.5299065 40 7
-4.0879078 -0.30317855 -1.4919122 47
8 -4.4275618 -0.32654628 -1.5000881
48 9 -4.7699599 -0.34984505
-1.492371 42 10 -5.1216049
-0.37451369 -1.4724723 26 11
-5.5461769 -0.4034003 -1.4557065 23
12 -6.0561752 -0.43912363 -1.4387057
70 13 -6.7904811 -0.48961577
-1.4470798 55 14 -7.5575066
-0.5418961 -1.4275351 36 15
-8.690382 -0.65927041 -1.4318587 62
16 -10.060328 -0.76089293 -1.4179022
50 17 -12.071847 -0.90822554
-1.4135345 45 18 -14.556121
-1.0893799 -1.3617928 10 19
-16.549633 -1.2352217 -1.1604614 31
20 -16.52463 -1.2275656 -0.77271897
30 21 -16.516617 -1.2211615
-0.38450298 26 22 -16.483435
-1.2157986 7.6745491e-06 35 23
-16.465448 -1.2086949 0.38331068 21
24 -16.43845 -1.2009635 0.76863348
23 25 -15.970716 -1.1640613
1.1197369 15 26 -15.30134
-1.1100508 1.4312835 16 27
5.0017032e-05 -0.0031037782 -2.9276785e-05 3
28 5.0017032e-05 -0.0031037782 -2.9276785e-05
11 29 5.0017032e-05 -0.0031037782
-2.9276785e-05 9 30 5.0017032e-05
-0.0031037782 -2.9276785e-05 17 31
-2.7971075 -0.19835904 -1.6629235 4
0 -2.9256821 -0.20630044 -1.6478392
29 1 -3.0511587 -0.214555
-1.6262708 33 2 -3.2024438
-0.22388224 -1.6117339 32 3
-3.3544581 -0.23319185 -1.5915518 32
4 -3.5489705 -0.24592774 -1.5838526
33 5 -3.673208 -0.25317216
-1.5378571 30 6 -3.8902771
-0.26657102 -1.5226308 40 7
-4.0970759 -0.27988434 -1.4946468 42
8 -4.4426255 -0.30171236 -1.504568
51 9 -4.747128 -0.3205114
-1.484625 47 10 -5.1006169
-0.34326255 -1.4658561 32 11
-5.5329442 -0.37019578 -1.4516534 25
12 -6.0507975 -0.40350321 -1.4368606
63 13 -6.7384877 -0.44664329
-1.4354357 50 14 -7.5133824
-0.49505615 -1.4186473 39 15
-8.6822329 -0.60818177 -1.4299126 69
16 -10.04871 -0.70163578 -1.4156753
40 17 -12.138273 -0.84269267
-1.420725 39 18 -14.528327
-1.0029646 -1.3586351 10 19
-16.454945 -1.1327491 -1.1533476 32
20 -16.437761 -1.1257854 -0.76834089
35 21 -16.427614 -1.1193099
-0.38227576 26 22 -16.396372
-1.1143124 6.6096277e-06 35 23
-16.37038 -1.1068043 0.38094187 23
24 -16.3554 -1.1000717 0.76444012
25 25 -15.897555 -1.0665753
1.114156 16 26 -15.247903
-1.0177623 1.4257095 18 27
2.5632873e-05 -0.0028850804 -2.6932228e-05 3
28 2.5632873e-05 -0.0028850804 -2.6932228e-05
11 29 2.5632873e-05 -0.0028850804
-2.6932228e-05 9 30 2.5632873e-05
-0.0028850804 -2.6932228e-05 17 31
-2.7878881 -0.18136117 -1.6568006 6
0 -2.9233301 -0.18904029 -1.6458786
29 1 -3.0558879 -0.19692327
-1.6281462 31 2 -3.2161727
-0.20598519 -1.6180137 33 3
-3.3701487 -0.21455425 -1.5983956 33
4 -3.5375948 -0.22447798 -1.5781564
35 5 -3.6948211 -0.23305002
-1.546335 24 6 -3.882477
-0.24333684 -1.5189914 42 7
-4.1023483 -0.25627106 -1.4960133 31
8 -4.4291387 -0.27496263 -1.4994447
46 9 -4.7355409 -0.29209059
-1.4804531 42 10 -5.125515
-0.31505886 -1.4724703 30 11
-5.5697217 -0.34017539 -1.4607689 25
12 -6.0918808 -0.37077668 -1.4460814
63 13 -6.7741675 -0.40963858
-1.4425036 50 14 -7.5161109
-0.45153242 -1.418646 39 15
-8.6284542 -0.55424029 -1.4205084 62
16 -10.060493 -0.64408708 -1.4167883
45 17 -12.14691 -0.7728247
-1.4211885 39 18 -14.513996
-0.91783369 -1.3567777 10 19
-16.375557 -1.0323296 -1.147349 32
20 -16.348255 -1.0248872 -0.76386946
32 21 -16.337997 -1.0185312
-0.3800483 27 22 -16.304625
-1.0135982 4.9395089e-06 35 23
-16.290625 -1.0070332 0.37894452 28
24 -16.263735 -0.99964625 0.75987422
25 25 -15.827708 -0.9701941
1.1088531 14 26 -15.179927
-0.92521966 1.4188349 18 27
2.9266643e-05 -0.0026121584 -2.4438723e-05 3
28 2.9266643e-05 -0.0026121584 -2.4438723e-05
11 29 2.9266643e-05 -0.0026121584
-2.4438723e-05 9 30 2.9266643e-05
-0.0026121584 -2.4438723e-05 17 31
-2.7974823 -0.16560359 -1.6618999 6
0 -2.9243331 -0.17196502 -1.645877
29 1 -3.0622125 -0.17942633
-1.630962 32 2 -3.2047896
-0.1865332 -1.6117307 30 3
-3.3694966 -0.19483276 -1.5975387 32
4 -3.5406086 -0.20395684 -1.5789684
33 5 -3.6868703 -0.2109935
-1.5424792 25 6 -3.8875215
-0.22100894 -1.5204452 40 7
-4.1262741 -0.23371807 -1.5042205 44
8 -4.4268436 -0.24901502 -1.498163
43 9 -4.7676282 -0.26627865
-1.4899838 45 10 -5.0965014
-0.2836324 -1.4636489 33 11
