# .PCD v0.7 - Point Cloud Data file format
VERSION 0.7
FIELDS x y z
SIZE 4 4 4
TYPE F F F
COUNT 1 1 1
WIDTH 1787
HEIGHT 1
VIEWPOINT 0 0 0 1 0 0 0
POINTS 1787
DATA ascii
2.3759999 14.594 -0.53899997
2.3280001 14.59 -0.53799999
2.2820001 14.597 -0.53799999
2.2579999 14.597 -0.53799999
2.2119999 14.598 -0.53799999
2.1619999 14.581 -0.537
2.118 14.596 -0.537
2.069 14.58 -0.53600001
2.0280001 14.626 -0.53799999
1.977 14.595 -0.53600001
1.955 14.602 -0.53600001
1.908 14.596 -0.53600001
1.8609999 14.598 -0.53600001
1.814 14.596 -0.53500003
1.768 14.596 -0.53500003
1.726 14.633 -0.53600001
1.675 14.601 -0.53500003
1.652 14.599 -0.53399998
1.6059999 14.601 -0.53399998
1.559 14.598 -0.53399998
1.516 14.63 -0.53500003
1.467 14.601 -0.53299999
1.425 14.647 -0.53600001
1.374 14.606 -0.53299999
1.354 14.64 -0.53500003
1.306 14.616 -0.53299999
1.262 14.648 -0.53500003
1.214 14.626 -0.53399998
1.17 14.656 -0.53500003
1.1210001 14.616 -0.53299999
1.0779999 14.655 -0.53399998
1.053 14.637 -0.53299999
1.0089999 14.672 -0.53500003
0.96100003 14.645 -0.53399998
0.917 14.676 -0.53500003
0.87 14.655 -0.53399998
0.82499999 14.679 -0.53500003
0.77700001 14.656 -0.53399998
0.75400001 14.657 -0.53399998
0.70899999 14.673 -0.53399998
0.66299999 14.682 -0.53500003
0.61699998 14.686 -0.53500003
0.57099998 14.689 -0.53500003
0.52499998 14.685 -0.53399998
0.479 14.703 -0.53500003
0.456 14.719 -0.53600001
0.41 14.729 -0.53600001
0.36500001 14.754 -0.53799999
0.31799999 14.757 -0.53799999
0.27200001 14.782 -0.53899997
0.226 14.809 -0.54000002
0.18000001 14.825 -0.54100001
0.15700001 14.852 -0.542
0.11 14.854 -0.542
0.064000003 14.89 -0.54400003
0.017000001 14.918 -0.546
-0.029999999 14.97 -0.54799998
-0.078000002 15.026 -0.551
-0.35800001 18.235001 -0.71200001
-0.41499999 18.225 -0.71200001
-0.47299999 18.243999 -0.713
-0.52999997 18.233999 -0.713
-0.55800003 18.232 -0.71200001
-0.61500001 18.226 -0.71200001
-0.088 2.552 0.075000003
-0.67299998 18.232 -0.713
-0.73000002 18.233 -0.713
-0.84500003 18.221001 -0.71200001
-0.90399998 18.252001 -0.71399999
-0.93099999 18.226 -0.713
-0.98900002 18.235001 -0.71399999
-1.046 18.226 -0.713
-1.104 18.239 -0.71399999
-1.161 18.226999 -0.71399999
-1.219 18.237 -0.71399999
-1.276 18.226999 -0.71399999
-1.3049999 18.231001 -0.71399999
-1.362 18.226999 -0.71399999
-1.4220001 18.249001 -0.71600002
-1.477 18.226 -0.71499997
-1.294 15.407 -0.57300001
-1.304 14.975 -0.551
-1.325 14.685 -0.537
-1.335 14.546 -0.52999997
-1.376 14.49 -0.52700001
-1.434 14.618 -0.53399998
-1.459 14.403 -0.52399999
-1.503 14.389 -0.523
-1.548 14.382 -0.523
-1.5930001 14.381 -0.523
-1.6160001 14.378 -0.523
-1.66 14.359 -0.52200001
-1.704 14.348 -0.52200001
-1.75 14.355 -0.523
-1.795 14.341 -0.52200001
-1.8380001 14.325 -0.52200001
-1.8839999 14.327 -0.52200001
-1.905 14.313 -0.52200001
-1.951 14.311 -0.52200001
-1.9960001 14.308 -0.52200001
-2.0409999 14.3 -0.52200001
-2.086 14.295 -0.52200001
-2.1340001 14.309 -0.523
-2.175 14.278 -0.52200001
-2.2 14.29 -0.523
-2.2460001 14.289 -0.523
-2.2909999 14.282 -0.523
-2.3369999 14.281 -0.523
-2.3829999 14.283 -0.52399999
-2.428 14.274 -0.52399999
-2.4719999 14.262 -0.523
-2.494 14.258 -0.523
-2.54 14.256 -0.52399999
-2.586 14.252 -0.52399999
-2.6340001 14.264 -0.52499998
-2.6760001 14.242 -0.52399999
-2.724 14.249 -0.52499998
-2.7690001 14.24 -0.52499998
-2.793 14.248 -0.52600002
-2.8369999 14.235 -0.52499998
-2.8829999 14.23 -0.52600002
-2.928 14.224 -0.52600002
-2.98 14.248 -0.528
-3.0209999 14.219 -0.52700001
-3.0669999 14.216 -0.52700001
-3.0940001 14.234 -0.528
-3.141 14.234 -0.52899998
-3.187 14.232 -0.52899998
-3.237 14.245 -0.52999997
-3.28 14.225 -0.52999997
-3.3269999 14.225 -0.52999997
-3.375 14.23 -0.53100002
-4.98 14.448 -0.56400001
-5.0419998 14.481 -0.56699997
-5.0819998 14.522 -0.56900001
-5.164 14.608 -0.57499999
-6.6399999 18.214001 -0.76999998
-6.6999998 18.202999 -0.76999998
-6.7649999 18.200001 -0.77100003
-6.8070002 18.226999 -0.77399999
-6.8699999 18.219999 -0.77399999
-6.9320002 18.212 -0.77499998
-7.0009999 18.219999 -0.77700001
-7.0570002 18.195999 -0.77700001
-7.1269999 18.205 -0.778
-7.197 18.216 -0.77999997
-7.2360001 18.229 -0.78100002
-7.296 18.212999 -0.78200001
-7.25 17.937 -0.76800001
-7.2919998 17.879 -0.76599997
-7.3600001 17.884001 -0.76800001
-7.5640001 18.216 -0.787
-7.6090002 18.163 -0.78500003
-7.4650002 17.666 -0.75999999
-7.4959998 17.662001 -0.75999999
-7.7950001 18.205 -0.79100001
-7.862 18.202999 -0.792
-7.9380002 18.219999 -0.79400003
-7.9959998 18.197001 -0.79500002
-8.0710001 18.212 -0.79699999
-8.1020002 18.205 -0.79699999
-8.1700001 18.205 -0.79799998
-8.2370005 18.201 -0.80000001
-8.3170004 18.224001 -0.80199999
-8.3809996 18.212 -0.80299997
-8.4460001 18.202 -0.80400002
-8.5139999 18.198999 -0.80500001
-8.5539999 18.211 -0.80699998
-8.6199999 18.202 -0.80800003
-8.7010002 18.223 -0.81099999
-8.7650003 18.209999 -0.81099999
-8.8299999 18.198999 -0.81199998
-8.9040003 18.207001 -0.81400001
-8.9709997 18.198 -0.815
-9.1029997 18.392 -0.82700002
-9.0749998 18.191999 -0.81699997
-7.8449998 15.611 -0.67400002
-7.848 15.497 -0.66900003
-7.8390002 15.359 -0.662
-7.8340001 15.231 -0.65700001
-7.8390002 15.125 -0.65200001
-7.8499999 15.029 -0.648
-7.8390002 14.951 -0.64399999
-7.8610001 14.881 -0.64200002
-7.8189998 14.689 -0.63200003
-7.9029999 14.625 -0.63099998
-7.9629998 14.518 -0.62800002
-8.0209999 14.461 -0.62699997
-8.0780001 14.456 -0.62800002
-8.1260004 14.436 -0.62800002
-8.1750002 14.416 -0.62900001
-8.2259998 14.4 -0.62900001
-8.2530003 14.396 -0.63
-8.309 14.387 -0.63099998
-8.3649998 14.38 -0.63200003
-8.4230003 14.376 -0.63300002
-8.4790001 14.369 -0.634
-8.5380001 14.364 -0.63599998
-8.6110001 14.384 -0.63800001
-8.6309996 14.367 -0.63800001
-8.6870003 14.356 -0.639
-8.7589998 14.373 -0.64200002
-8.823 14.376 -0.64399999
-8.8769999 14.364 -0.64399999
-8.9490004 14.378 -0.64700001
-8.9980001 14.357 -0.64700001
-9.066 14.364 -0.64899999
-9.099 14.367 -0.64999998
-9.1700001 14.378 -0.653
-9.2379999 14.385 -0.65499997
-9.2939997 14.372 -0.65600002
-9.3590002 14.373 -0.65799999
-9.4200001 14.369 -0.65899998
-9.4829998 14.366 -0.66100001
-9.5229998 14.377 -0.662
-9.5909996 14.381 -0.66500002
-9.6599998 14.387 -0.667
-9.7200003 14.378 -0.66799998
-9.783 14.374 -0.67000002
-9.842 14.363 -0.671
-9.915 14.373 -0.67299998
-9.9540005 14.38 -0.67500001
-10.024 14.385 -0.67699999
-10.09 14.383 -0.67900002
-10.155 14.379 -0.68000001
-10.221 14.376 -0.68199998
-10.298 14.389 -0.685
-10.333 14.389 -0.68599999
-10.395 14.381 -0.68800002
-10.463 14.379 -0.68900001
-10.533 14.38 -0.69199997
-10.612 14.393 -0.69400001
-10.678 14.387 -0.69599998
-10.742 14.379 -0.69800001
-10.786 14.391 -0.69999999
-10.866 14.403 -0.70300001
-10.931 14.394 -0.704
-11.009 14.403 -0.70700002
-11.088 14.412 -0.70999998
-11.154 14.404 -0.71100003
-11.241 14.423 -0.71499997
-11.331 14.444 -0.71799999
-11.392 14.474 -0.72100002
-11.486 14.5 -0.72500002
-14.534 18.219 -0.96700001
-14.608 18.193001 -0.96799999
-14.704 18.195 -0.97100002
-14.8 18.197001 -0.97399998
-14.889 18.188999 -0.977
-14.949 18.204 -0.97899997
-15.053 18.214001 -0.98299998
-15.133 18.194 -0.98500001
-15.232 18.195 -0.98799998
-15.33 18.195999 -0.991
-15.423 18.191 -0.99400002
-15.519 18.188 -0.99699998
-15.589 18.212 -1
-15.68 18.202 -1.003
-15.777 18.198 -1.006
-15.879 18.198999 -1.0089999
-15.969 18.187 -1.012
-16.066999 18.183001 -1.015
-16.173 18.188 -1.0190001
-16.239 18.204 -1.021
-16.34 18.202 -1.025
-16.436001 18.193001 -1.028
-16.537001 18.190001 -1.031
-16.638 18.184999 -1.034
-16.75 18.193001 -1.038
-16.837 18.173 -1.04
-16.917999 18.202 -1.044
-17.025 18.202999 -1.048
-17.128 18.197001 -1.051
-17.233 18.194 -1.0549999
-17.344 18.195999 -1.059
-17.434999 18.177 -1.061
-17.547001 18.177999 -1.0650001
-17.625 18.202 -1.069
-17.695 18.16 -1.0700001
-17.700001 18.051001 -1.066
-17.707001 17.945999 -1.062
-17.733 17.858999 -1.0599999
-17.837999 17.853001 -1.064
-17.951 17.853001 -1.068
-18.021999 17.867001 -1.071
-18.132999 17.865 -1.075
-18.261999 17.879 -1.08
-18.246 17.752001 -1.075
-16.083 15.553 -0.92000002
-16.052 15.426 -0.91399997
-16.030001 15.308 -0.90899998
-16 15.232 -0.90600002
-15.985 15.123 -0.90100002
-15.985 15.028 -0.898
-15.985 14.934 -0.89499998
-15.981 14.836 -0.89099997
-15.983 14.745 -0.88800001
-15.988 14.657 -0.88599998
-15.99 14.613 -0.884
-15.983 14.514 -0.88099998
-16.009001 14.447 -0.87900001
-16.025 14.37 -0.87699997
-16.034 14.288 -0.875
-16.08 14.238 -0.875
-16.101999 14.168 -0.87300003
-16.146999 14.162 -0.875
-16.226 14.142 -0.87699997
-16.305 14.121 -0.88
-16.386999 14.102 -0.88200003
-16.471001 14.084 -0.88499999
-16.561001 14.071 -0.88800001
-16.650999 14.058 -0.89099997
-16.922001 14.241 -0.90700001
-16.823 14.067 -0.898
-16.896 14.039 -0.89999998
-17.01 14.043 -0.90399998
-17.129 14.051 -0.90899998
-17.277 14.082 -0.91600001
-17.407 14.096 -0.921
-17.370001 14.021 -0.917
-17.500999 14.037 -0.92299998
-17.605 14.029 -0.92699999
-17.719 14.029 -0.93099999
-17.813999 14.013 -0.935
-17.93 14.013 -0.93900001
-18.024 13.996 -0.94199997
-18.121 14.025 -0.94700003
-18.226 14.016 -0.95099998
-18.35 14.019 -0.95599997
-18.451 14.004 -0.95999998
-18.576 14.008 -0.96499997
-18.677999 13.992 -0.96799999
-18.796 13.988 -0.97299999
-18.895 14.016 -0.97799999
-19.014 14.012 -0.98199999
-19.129 14.004 -0.98699999
-19.268 14.013 -0.99299997
-19.379999 14.002 -0.99699998
-19.51 14.002 -1.002
-19.591999 13.967 -1.005
-19.708 14.004 -1.01
-19.878 14.03 -1.018
-20.048 14.056 -1.026
-20.084 13.987 -1.025
-20.257 14.014 -1.033
-20.339001 13.976 -1.036
-22.988001 15.686 -1.194
-22.871 15.554 -1.1849999
-22.885 15.458 -1.183
-22.945999 15.395 -1.184
-23.084 15.383 -1.189
-23.128 15.307 -1.189
-23.139 15.21 -1.187
-22.725 14.836 -1.159
-22.502001 14.641 -1.1440001
-22.489 14.532 -1.141
-22.504 14.442 -1.1390001
-22.514 14.349 -1.137
-35.042999 11.45 -1.647
-35.137001 11.42 -1.651
-35.27 11.341 -1.6569999
-35.405998 11.262 -1.6619999
-35.542999 11.182 -1.6670001
-29.700001 9.1440001 -1.357
-29.931 9.1120005 -1.367
-31.035999 9.3940001 -1.425
-31.275999 9.3590002 -1.436
-13.089 3.888 -0.48199999
-13.137 3.8570001 -0.484
-13.989 3.9389999 -0.52600002
-13.991 3.892 -0.52600002
-14.052 3.862 -0.528
-14.724 3.9460001 -0.56199998
-14.751 3.8540001 -0.56199998
-14.643 3.8010001 -0.55599999
-14.751 3.78 -0.56099999
-14.81 3.7449999 -0.56400001
-14.261 3.5599999 -0.53500003
-14.709 3.622 -0.55699998
-14.883 3.615 -0.56599998
-14.887 3.566 -0.565
-14.865 3.536 -0.56400001
-14.874 3.4890001 -0.56400001
-14.856 3.4360001 -0.56199998
-14.857 3.3870001 -0.56199998
-14.861 3.339 -0.56099999
-14.848 3.2869999 -0.56
-14.839 3.2360001 -0.55900002
-14.834 3.211 -0.55900002
-14.827 3.1600001 -0.55800003
-14.643 3.073 -0.54799998
-14.046 2.9030001 -0.51700002
-14.039 2.8559999 -0.51599997
-14.023 2.8069999 -0.51499999
-13.12 2.585 -0.46799999
-13.108 2.5190001 -0.46700001
-13.173 2.4879999 -0.47
-13.926 2.425 -0.50599998
-14.122 2.414 -0.51599997
-14.784 2.382 -0.54799998
-15.404 2.382 -0.579
-19.136999 2.9219999 -0.76899999
-19.139999 2.8610001 -0.76800001
-19.146999 2.8010001 -0.76800001
-18.254 2.6129999 -0.722
-18.127001 2.5369999 -0.71600002
-18.173 2.427 -0.71700001
-18.295 2.355 -0.72299999
-18.312 2.299 -0.72299999
-18.575001 2.2720001 -0.736
-20.028 2.3840001 -0.80900002
-23.330999 2.2909999 -0.97399998
-30.195999 2.2409999 -1.317
-30.205 2.1459999 -1.317
-31.122999 2.063 -1.363
-33.118999 2.089 -1.4630001
-36.842999 2.2049999 -1.65
-42.612 2.0090001 -1.938
-41.779999 1.839 -1.896
-41.948002 1.78 -1.904
-43.916 1.724 -2.003
-44.605999 1.61 -2.0369999
-44.465 1.466 -2.03
-44.449001 1.325 -2.029
-44.465 1.186 -2.03
-44.451 1.046 -2.029
-44.450001 0.97600001 -2.029
-44.437 0.83600003 -2.0280001
-44.486 0.69700003 -2.03
-44.490002 0.55699998 -2.03
-44.522999 0.41800001 -2.0320001
-44.580002 0.278 -2.0350001
-44.640999 0.138 -2.0380001
-44.710999 0.068000004 -2.0409999
-44.691002 -0.071999997 -2.04
-44.661999 -0.212 -2.039
-44.665001 -0.35299999 -2.039
-44.664001 -0.493 -2.039
-44.689999 -0.634 -2.04
-44.702 -0.77399999 -2.0409999
-44.738998 -0.84500003 -2.043
-44.771999 -0.98699999 -2.0450001
-44.816002 -1.1289999 -2.0469999
-44.890999 -1.272 -2.0510001
-44.978001 -1.416 -2.056
-44.987 -1.557 -2.0569999
-45.049 -1.63 -2.0599999
-45.077 -1.773 -2.0610001
-45.110001 -1.916 -2.063
-45.154999 -2.0610001 -2.066
-45.237999 -2.207 -2.0699999
-45.370998 -2.3559999 -2.0769999
-45.455002 -2.5039999 -2.082
-45.577999 -2.5829999 -2.0880001
-45.716 -2.7349999 -2.096
-45.889999 -2.8900001 -2.105
-46.057999 -3.046 -2.1140001
-46.236 -3.204 -2.1229999
-46.373001 -3.3599999 -2.131
-46.583 -3.5220001 -2.142
-42.419998 -3.54 -1.934
-36.268002 -3.483 -1.626
-36.166 -3.5869999 -1.6210001
-36.118 -3.6400001 -1.619
-36.067001 -3.7490001 -1.617
-36.067001 -3.8640001 -1.618
-36.041 -3.9749999 -1.617
-35.977001 -4.0830002 -1.614
-35.977001 -4.197 -1.615
-35.987 -4.256 -1.6160001
-35.980999 -4.3699999 -1.6160001
-36.223 -4.5149999 -1.6289999
-36.023998 -4.605 -1.62
-36.061001 -4.7249999 -1.623
-36.101002 -4.8460002 -1.625
-36.102001 -4.961 -1.626
-36.271999 -5.0430002 -1.635
-46.743999 -6.6560001 -2.1670001
-46.737 -6.8049998 -2.168
-22.962999 -3.404 -0.96200001
-22.68 -3.434 -0.94800001
-21.934999 -3.391 -0.91100001
-21.719 -3.427 -0.90100002
-13.954 -2.3050001 -0.50700003
-13.939 -2.348 -0.50599998
-13.969 -2.398 -0.50800002
-13.969 -2.4430001 -0.509
-13.975 -2.49 -0.509
-13.954 -2.5079999 -0.50800002
-13.977 -2.5580001 -0.50999999
-13.985 -2.605 -0.51099998
-14.02 -2.6570001 -0.51300001
-14.082 -2.7149999 -0.51700002
-13.936 -2.7320001 -0.50999999
-20.141001 -4.026 -0.82800001
-20.142 -4.059 -0.82800001
-20.150999 -4.1269999 -0.829
-20.165001 -4.1960001 -0.83099997
-20.179001 -4.2649999 -0.83200002
-20.205 -4.3369999 -0.83399999
-20.218 -4.4060001 -0.83600003
-20.277 -4.4860001 -0.83899999
-20.311001 -4.527 -0.84100002
-20.337 -4.5999999 -0.84299999
-20.385 -4.678 -0.847
-20.419001 -4.7529998 -0.84899998
-20.462 -4.8309999 -0.852
-20.52 -4.9130001 -0.85600001
-20.580999 -4.9959998 -0.86000001
-20.635 -5.0440001 -0.86299998
-20.931 -5.1859999 -0.87900001
-44.265999 -11.146 -2.0880001
-21.051001 -5.3569999 -0.88700002
-48.266998 -12.479 -2.299
-43.777 -11.609 -2.0699999
-48.955002 -13.068 -2.3399999
-46.747002 -12.635 -2.2279999
-46.462002 -12.715 -2.2149999
-46.353001 -12.841 -2.211
-46.176998 -12.949 -2.204
-46.104 -13.085 -2.2030001
-46.035999 -13.222 -2.201
-45.951 -13.276 -2.198
-45.887001 -13.413 -2.197
-45.957001 -13.591 -2.2030001
-46.015999 -13.766 -2.2079999
-43.332001 -13.11 -2.069
-43.139999 -13.2 -2.062
-42.863998 -13.262 -2.049
-42.879002 -13.341 -2.0510001
-34.785999 -10.938 -1.627
-34.752998 -11.048 -1.627
-41.417 -13.315 -1.9809999
-42.345001 -13.761 -2.0320001
-41.952999 -13.779 -2.013
-41.537998 -13.787 -1.994
-41.500999 -13.847 -1.993
-41.491001 -13.989 -1.995
-41.483002 -14.131 -1.997
-41.473999 -14.274 -1.999
-41.459 -14.415 -2
-28.377001 -10.058 -1.308
-28.079 -10.002 -1.293
-27.805 -10.002 -1.28
-27.386 -10.144 -1.263
-27.347 -10.227 -1.262
-27.319 -10.266 -1.262
-27.275999 -10.347 -1.261
-27.254 -10.437 -1.262
-27.242001 -10.531 -1.263
-27.202999 -10.614 -1.263
-27.208 -10.715 -1.265
-27.195 -10.808 -1.266
-27.193001 -10.906 -1.268
-27.207001 -10.962 -1.2690001
-27.193001 -11.056 -1.27
-27.184999 -11.152 -1.272
-27.172001 -11.247 -1.273
-27.183001 -11.351 -1.276
-27.166 -11.445 -1.277
-27.172001 -11.548 -1.279
-27.174 -11.599 -1.28
-27.152 -11.691 -1.281
-27.155001 -11.794 -1.283
-27.149 -11.893 -1.285
-27.139 -11.99 -1.286
-27.136 -12.091 -1.288
-27.129 -12.19 -1.29
-27.148001 -12.25 -1.2920001
-27.138 -12.348 -1.294
-27.127001 -12.446 -1.295
-27.125 -12.549 -1.2970001
-27.117001 -12.648 -1.299
-27.124001 -12.755 -1.301
-34.074001 -17.358999 -1.716
-34.069 -17.492001 -1.719
-34.057999 -17.622 -1.722
-34.054001 -17.754999 -1.725
-34.076 -17.834999 -1.728
-34.070999 -17.969 -1.73
-34.067001 -18.104 -1.733
-34.070999 -18.243999 -1.737
-34.056 -18.374001 -1.739
-34.053001 -18.51 -1.742
-34.047001 -18.646 -1.745
-34.068001 -18.726999 -1.748
-34.071999 -18.868999 -1.752
-34.060001 -19.002001 -1.755
-34.056999 -19.141001 -1.758
-34.056 -19.282 -1.761
-34.036999 -19.413 -1.7640001
-27.990999 -16.075001 -1.4170001
-18.875 -10.87 -0.88999999
-13.475 -8.0360003 -0.58399999
-13.433 -8.0679998 -0.583
-13.268 -7.9970002 -0.574
-13.422 -8.1479998 -0.58499998
-13.204 -8.0719995 -0.574
-13.107 -8.0690002 -0.56900001
-13.761 -8.5340004 -0.61000001
-12.69 -7.9219999 -0.54799998
-12.618 -7.9320002 -0.54500002
-12.535 -7.9070001 -0.54100001
-12.459 -7.914 -0.53799999
-12.377 -7.9169998 -0.53399998
-12.297 -7.9200001 -0.53100002
-12.215 -7.921 -0.528
-12.133 -7.9229999 -0.52399999
-12.045 -7.9190001 -0.51999998
-12.001 -7.9169998 -0.51899999
-11.919 -7.9169998 -0.51499999
-11.85 -7.9239998 -0.51200002
-11.762 -7.9190001 -0.509
-11.749 -7.9640002 -0.509
-11.737 -8.0089998 -0.50999999
-11.736 -8.0629997 -0.51200002
-11.746 -8.0979996 -0.51300001
-11.729 -8.1400003 -0.51300001
-11.741 -8.2030001 -0.51599997
-13.85 -9.7469997 -0.64700001
-13.83 -9.7989998 -0.648
-13.858 -9.8839998 -0.65100002
-13.819 -9.9219999 -0.65100002
-13.834 -9.9659996 -0.653
-13.833 -10.031 -0.65499997
-13.863 -10.12 -0.65799999
-13.858 -10.183 -0.66000003
-13.823 -10.224 -0.66000003
-13.797 -10.273 -0.66000003
-13.859 -10.353 -0.66500002
-13.852 -10.416 -0.667
-13.864 -10.493 -0.67000002
-21.179001 -16.152 -1.1339999
-21.1 -16.195999 -1.132
-20.983 -16.211 -1.128
-12.838 -9.9700003 -0.61299998
-12.747 -9.9639997 -0.60900003
-12.725 -9.9790001 -0.60900003
-12.606 -9.9490004 -0.60299999
-12.612 -10.019 -0.60500002
-12.504 -9.9969997 -0.60000002
-12.537 -10.153 -0.60699999
-13.481 -10.956 -0.66900003
-13.497 -11.04 -0.67199999
-12.449 -10.245 -0.60600001
-12.177 -10.085 -0.59100002
-12.155 -10.131 -0.59100002
-11.614 -9.7410002 -0.55800003
-11.492 -9.6999998 -0.55199999
-11.892 -10.071 -0.579
-11.945 -10.181 -0.58499998
-12.775 -10.96 -0.64200002
-11.791 -10.177 -0.579
-11.683 -10.149 -0.574
-11.31 -9.8859997 -0.551
-11.224 -9.8730001 -0.54699999
-12.577 -11.102 -0.639
-11.892 -10.562 -0.59500003
-12.365 -11.054 -0.62900001
-10.978 -9.8730001 -0.53799999
-12.276 -11.114 -0.62800002
-10.988 -10.007 -0.54299998
-11.026 -10.105 -0.54799998
-12.039 -11.072 -0.61799997
-11.738 -10.863 -0.60000002
-10.899 -10.148 -0.54400003
-10.843 -10.159 -0.54299998
-10.879 -10.258 -0.54699999
-11.712 -11.115 -0.60699999
-11.697 -11.171 -0.60900003
-10.622 -10.174 -0.53500003
-12.099 -11.667 -0.64099997
-10.628 -10.309 -0.54000002
-12.742 -12.444 -0.69099998
-12.349 -12.135 -0.66600001
-12.689 -12.549 -0.69300002
-13.423 -13.361 -0.74800003
-12.29 -12.268 -0.66900003
-12.956 -13.017 -0.71899998
-11.982 -12.112 -0.65200001
-11.919 -12.124 -0.64999998
-11.881 -12.161 -0.64999998
-11.852 -12.209 -0.65100002
-11.851 -12.285 -0.65399998
-11.838 -12.309 -0.65399998
-12.81 -13.408 -0.72799999
-12.796 -13.477 -0.73000002
-13.052 -13.834 -0.75199997
-11.992 -12.788 -0.67699999
-16.566 -17.792 -1.017
-12.658 -13.672 -0.73199999
-12.447 -13.486 -0.71799999
-12.538 -13.671 -0.72799999
-12.731 -13.97 -0.74599999
-12.673 -13.994 -0.745
-12.59 -13.991 -0.74199998
-12.538 -14.021 -0.741
-11.136 -12.528 -0.63800001
-11.194 -12.634 -0.64399999
-11.545 -13.113 -0.67400002
-11.291 -12.906 -0.65799999
-11.233 -12.922 -0.65600002
-11.175 -12.937 -0.65499997
-11.435 -13.323 -0.67799997
-11.032 -12.976 -0.65200001
-16.589001 -19.656 -1.0880001
-11.344 -13.515 -0.68300003
-11.277 -13.521 -0.68099999
-11.231 -13.552 -0.68000001
-11.459 -13.918 -0.70200002
-11.577 -14.106 -0.713
-11.521 -14.128 -0.71200001
-11.64 -14.366 -0.72500002
-11.736 -14.579 -0.736
-16.566999 -20.731001 -1.1289999
-16.554001 -20.849001 -1.133
-16.462999 -20.868 -1.131
-16.545 -21.040001 -1.14
-16.537001 -21.167 -1.145
-16.548 -21.318001 -1.152
-16.562 -21.476 -1.158
-16.549 -21.6 -1.163
-16.546 -21.736 -1.168
-16.537001 -21.867001 -1.173
-17.124001 -22.719 -1.225
-17.084999 -22.815001 -1.228
-16.558001 -22.256001 -1.189
-16.559 -22.405001 -1.1950001
-16.525 -22.507 -1.198
-16.535999 -22.67 -1.205
-16.524 -22.804001 -1.21
-16.563 -22.934 -1.217
-16.551001 -23.07 -1.222
-16.541 -23.209999 -1.228
-16.541 -23.365 -1.234
-16.535999 -23.514999 -1.24
-16.514999 -23.642 -1.244
-16.531 -23.825001 -1.253
-16.549999 -23.931 -1.257
-16.551001 -24.094999 -1.2640001
-16.542 -24.245001 -1.27
-16.539 -24.406 -1.277
-16.527 -24.554001 -1.283
-16.490999 -24.667 -1.286
-16.504999 -24.857 -1.295
-16.541 -24.996 -1.301
-16.535999 -25.16 -1.308
-16.530001 -25.323999 -1.3150001
-16.531 -25.500999 -1.322
-16.528999 -25.674 -1.33
-16.504 -25.813 -1.335
-16.481001 -25.955999 -1.34
-16.521 -26.111 -1.348
-16.499001 -26.259001 -1.354
-16.527 -26.488001 -1.364
-16.514999 -26.653999 -1.3710001
-16.509001 -26.834 -1.378
-16.497999 -27.004999 -1.385
-16.490999 -27.186001 -1.393
-16.500999 -27.299 -1.398
-16.509001 -27.507 -1.4069999
-16.518999 -27.722 -1.4170001
-16.509001 -27.903999 -1.424
-16.497 -28.084999 -1.432
-16.493999 -28.284 -1.4400001
-16.48 -28.465 -1.448
-16.516001 -28.631001 -1.456
-16.518999 -28.844 -1.465
-16.511 -29.042 -1.474
-16.49 -29.219 -1.4809999
-16.479 -29.415001 -1.489
-4.3590002 -7.8579998 -0.248
-4.3610001 -7.8909998 -0.249
-4.3130002 -7.8600001 -0.24699999
-4.2839999 -7.8670001 -0.24600001
-4.2490001 -7.8610001 -0.245
-4.223 -7.8730001 -0.245
-4.1859999 -7.8629999 -0.244
-4.1799998 -7.8800001 -0.245
-4.1420002 -7.868 -0.243
-4.1110001 -7.869 -0.242
-4.0830002 -7.8759999 -0.242
-4.0469999 -7.868 -0.241
-4.0170002 -7.8699999 -0.23999999
-3.99 -7.8769999 -0.23999999
-3.971 -7.8709998 -0.23899999
-3.9449999 -7.8800001 -0.23899999
-3.901 -7.8530002 -0.237
-3.878 -7.868 -0.237
-3.845 -7.8639998 -0.236
-3.8210001 -7.8779998 -0.236
-3.783 -7.8629999 -0.235
-3.77 -7.8670001 -0.235
-3.744 -7.8759999 -0.235
-3.7049999 -7.8559999 -0.233
-3.6860001 -7.881 -0.234
-3.651 -7.8709998 -0.23199999
-3.625 -7.8800001 -0.23199999
-3.589 -7.8660002 -0.23100001
-3.5699999 -7.8569999 -0.23
-3.539 -7.8540001 -0.229
-3.5179999 -7.8720002 -0.23
-3.483 -7.8610001 -0.228
-3.4579999 -7.8720002 -0.228
-3.4230001 -7.8590002 -0.227
-3.404 -7.848 -0.226
-3.4030001 -7.914 -0.229
-3.3929999 -7.961 -0.23100001
-3.401 -8.0489998 -0.235
-3.336 -7.9640002 -0.23
-3.303 -7.9559999 -0.229
-3.267 -7.9380002 -0.228
-3.2409999 -7.947 -0.228
-3.223 -7.9369998 -0.227
-3.194 -7.9380002 -0.226
-3.1630001 -7.9330001 -0.226
-3.1370001 -7.941 -0.22499999
-3.1099999 -7.9429998 -0.22499999
-3.086 -7.9569998 -0.22499999
-3.063 -7.934 -0.22400001
-3.0369999 -7.941 -0.22400001
-3.0109999 -7.947 -0.223
-2.9779999 -7.934 -0.222
-2.951 -7.9400001 -0.222
-2.9300001 -7.96 -0.223
-2.892 -7.934 -0.221
-2.885 -7.9530001 -0.221
-2.8640001 -7.974 -0.222
-2.8239999 -7.9390001 -0.22
-2.799 -7.948 -0.22
-2.7639999 -7.928 -0.21799999
-2.7460001 -7.9559999 -0.219
-2.7190001 -7.9590001 -0.219
-2.7030001 -7.9520001 -0.21799999
-2.6760001 -7.9559999 -0.21799999
-2.6470001 -7.9520001 -0.21699999
-2.6240001 -7.9650002 -0.21799999
-2.5929999 -7.9549999 -0.21699999
-2.5710001 -7.9720001 -0.21699999
-2.5469999 -7.9840002 -0.21699999
-2.5369999 -7.9959998 -0.21799999
-2.513 -8.0080004 -0.21799999
-2.4890001 -8.0209999 -0.21799999
-2.4590001 -8.0120001 -0.21699999
-2.4349999 -8.0229998 -0.21799999
-2.411 -8.0369997 -0.21799999
-2.3900001 -8.0570002 -0.219
-2.3710001 -8.0380001 -0.21699999
-2.3469999 -8.0509996 -0.21799999
-2.3280001 -8.0799999 -0.219
-2.299 -8.0740004 -0.21799999
-2.2839999 -8.1190004 -0.22
-2.25 -8.0959997 -0.219
-2.2379999 -8.1529999 -0.221
-2.2119999 -8.1079998 -0.219
-2.191 -8.132 -0.22
-2.164 -8.1330004 -0.219
-2.135 -8.125 -0.21799999
-2.118 -8.1639996 -0.22
-2.089 -8.1590004 -0.22
-2.0699999 -8.1389999 -0.21799999
-2.053 -8.1809998 -0.22
-2.0190001 -8.1520004 -0.21799999
-2.0020001 -8.1929998 -0.22
-1.97 -8.1719999 -0.219
-1.947 -8.1899996 -0.219
-1.919 -8.1890001 -0.219
-1.91 -8.2049999 -0.22
-1.883 -8.2069998 -0.219
-1.855 -8.2030001 -0.219
-1.829 -8.2069998 -0.219
-1.806 -8.2290001 -0.22
-1.773 -8.2010002 -0.21799999
-1.745 -8.1949997 -0.21699999
-1.743 -8.25 -0.22
-1.707 -8.2069998 -0.21799999
-1.687 -8.2399998 -0.219
-1.654 -8.21 -0.21699999
-1.6289999 -8.217 -0.21699999
-1.604 -8.2299995 -0.21799999
-1.58 -8.2440004 -0.21799999
-1.564 -8.2270002 -0.21699999
-1.5369999 -8.2259998 -0.21699999
-1.513 -8.2410002 -0.21699999
-1.488 -8.2530003 -0.21799999
-1.457 -8.2270002 -0.21600001
-1.433 -8.2449999 -0.21699999
-1.404 -8.2299995 -0.21600001
-1.393 -8.2399998 -0.21600001
-1.3660001 -8.2419996 -0.21600001
-1.339 -8.2399998 -0.21600001
-1.312 -8.2370005 -0.215
-1.286 -8.2370005 -0.215
-1.258 -8.2250004 -0.214
-1.234 -8.243 -0.215
-1.2180001 -8.2270002 -0.214
-1.192 -8.2270002 -0.214
-1.1619999 -8.1990004 -0.212
-1.1440001 -8.2600002 -0.215
-1.113 -8.2259998 -0.213
-1.087 -8.2270002 -0.213
-1.072 -8.2189999 -0.213
-1.051 -8.2559996 -0.215
-1.022 -8.2329998 -0.213
-0.99699998 -8.2510004 -0.214
-0.95599997 -8.1210003 -0.207
-0.926 -8.0839996 -0.205
-0.91600001 -8.2220001 -0.212
-0.90399998 -8.2329998 -0.213
-0.87400001 -8.1940002 -0.20999999
-0.85299999 -8.2489996 -0.213
-0.824 -8.2189999 -0.211
-0.796 -8.2040005 -0.211
-0.77200001 -8.2220001 -0.211
-0.74199998 -8.1750002 -0.20900001
-0.72899997 -8.1739998 -0.20900001
-0.708 -8.2299995 -0.211
-0.68000001 -8.2130003 -0.20999999
-0.65600002 -8.2309999 -0.211
-0.62900001 -8.2250004 -0.211
-0.60399997 -8.2410002 -0.212
-0.57700002 -8.2220001 -0.211
-0.56599998 -8.2489996 -0.212
-0.53799999 -8.2250004 -0.211
-0.51300001 -8.2309999 -0.211
-0.48699999 -8.2379999 -0.211
-0.46200001 -8.25 -0.212
-0.435 -8.2270002 -0.20999999
-0.41 -8.25 -0.211
-0.396 -8.2229996 -0.20999999
-0.37099999 -8.25 -0.211
-0.345 -8.2390003 -0.211
-0.31900001 -8.2410002 -0.211
-0.29300001 -8.2370005 -0.211
-0.26699999 -8.2399998 -0.211
-0.23999999 -8.217 -0.20900001
-0.228 -8.2279997 -0.20999999
-0.20200001 -8.2299995 -0.20999999
-0.176 -8.243 -0.211
-0.15000001 -8.2329998 -0.20999999
-0.124 -8.2340002 -0.20999999
-0.097999997 -8.2220001 -0.20999999
-0.085000001 -8.2200003 -0.20900001
-0.059999999 -8.2200003 -0.20900001
-0.034000002 -8.2349997 -0.20999999
-0.0080000004 -8.2209997 -0.20900001
0.017999999 -8.2349997 -0.20999999
0.044 -8.217 -0.20900001
0.07 -8.2320004 -0.20999999
0.082000002 -8.1999998 -0.208
0.109 -8.2360001 -0.20999999
0.134 -8.2159996 -0.20900001
0.16 -8.2049999 -0.20900001
0.184 -8.151 -0.206
0.20900001 -8.1219997 -0.205
0.236 -8.1750002 -0.207
0.25 -8.1969995 -0.208
0.27500001 -8.1960001 -0.208
0.301 -8.2010002 -0.20900001
0.32600001 -8.184 -0.208
0.35100001 -8.1569996 -0.207
0.38 -8.2200003 -0.20999999
0.40200001 -8.1569996 -0.207
0.41600001 -8.1800003 -0.208
0.442 -8.1750002 -0.208
0.46799999 -8.1789999 -0.208
0.495 -8.2019997 -0.20900001
0.51999998 -8.1800003 -0.208
0.54400003 -8.1610003 -0.207
0.56999999 -8.1590004 -0.207
0.583 -8.1599998 -0.207
0.60900003 -8.1660004 -0.208
0.634 -8.1540003 -0.207
0.66000003 -8.1560001 -0.208
0.685 -8.1499996 -0.207
0.70999998 -8.1379995 -0.207
0.722 -8.1309996 -0.207
0.745 -8.1090002 -0.206
0.76899999 -8.0900002 -0.205
0.79500002 -8.0939999 -0.205
0.82099998 -8.0889997 -0.205
0.84399998 -8.0649996 -0.204
0.87 -8.0699997 -0.204
0.88200003 -8.0609999 -0.204
0.90700001 -8.0539999 -0.204
0.93300003 -8.059 -0.204
0.95700002 -8.0459995 -0.204
0.98100001 -8.0349998 -0.20299999
1.0039999 -8.0139999 -0.20200001
1.029 -8.007 -0.20200001
1.041 -8 -0.20200001
1.066 -7.9980001 -0.20200001
1.09 -7.9850001 -0.20100001
1.1160001 -7.993 -0.20200001
1.1440001 -8.0100002 -0.20299999
1.165 -7.9780002 -0.20200001
1.1900001 -7.9689999 -0.20100001
1.204 -7.9790001 -0.20200001
1.226 -7.9530001 -0.20100001
1.25 -7.947 -0.20100001
1.277 -7.9569998 -0.20100001
1.3 -7.9369998 -0.20100001
1.325 -7.9330001 -0.20100001
1.3380001 -7.9330001 -0.20100001
1.364 -7.9349999 -0.20100001
1.387 -7.9239998 -0.20100001
1.415 -7.9359999 -0.20100001
1.438 -7.9169998 -0.20100001
1.4630001 -7.9190001 -0.20100001
1.489 -7.9200001 -0.20100001
1.571 -8.2060003 -0.21600001
1.534 -7.9499998 -0.20299999
1.556 -7.9299998 -0.20200001
1.5829999 -7.9359999 -0.20299999
1.671 -8.2349997 -0.219
1.6339999 -7.9299998 -0.20299999
1.655 -7.908 -0.20200001
1.683 -7.9159999 -0.20299999
1.694 -7.9089999 -0.20299999
1.724 -7.927 -0.204
1.747 -7.9099998 -0.20299999
1.775 -7.9200001 -0.204
1.8 -7.9130001 -0.204
1.8279999 -7.9229999 -0.205
1.845 -7.9390001 -0.206
1.864 -7.9099998 -0.205
1.891 -7.9099998 -0.205
1.914 -7.8959999 -0.205
1.947 -7.9229999 -0.206
1.974 -7.927 -0.207
2 -7.9239998 -0.207
2.0079999 -7.9039998 -0.206
2.036 -7.9109998 -0.207
2.066 -7.9219999 -0.208
2.0880001 -7.9060001 -0.207
2.1140001 -7.9050002 -0.208
2.1470001 -7.9289999 -0.20900001
2.1670001 -7.901 -0.208
2.184 -7.915 -0.20900001
2.207 -7.902 -0.20900001
2.2420001 -7.9299998 -0.20999999
2.2650001 -7.9169998 -0.20999999
2.293 -7.9200001 -0.211
2.319 -7.9159999 -0.211
2.3469999 -7.9219999 -0.212
2.3629999 -7.9299998 -0.212
2.3870001 -7.9169998 -0.212
2.411 -7.9070001 -0.212
2.4430001 -7.9229999 -0.213
2.4679999 -7.915 -0.213
2.5 -7.9320002 -0.214
2.51 -7.9180002 -0.214
2.536 -7.914 -0.214
2.563 -7.914 -0.214
2.596 -7.9289999 -0.21600001
2.6140001 -7.8990002 -0.214
2.6500001 -7.927 -0.21600001
2.6730001 -7.9109998 -0.21600001
2.688 -7.915 -0.21600001
2.7160001 -7.9159999 -0.21699999
2.75 -7.9330001 -0.21799999
2.7690001 -7.908 -0.21699999
2.8050001 -7.9310002 -0.219
2.829 -7.9200001 -0.219
2.859 -7.9239998 -0.22
2.8740001 -7.9260001 -0.22
2.9070001 -7.941 -0.221
2.925 -7.9109998 -0.22
2.96 -7.9299998 -0.222
2.983 -7.915 -0.221
3.0179999 -7.9320002 -0.223
3.04 -7.915 -0.222
3.062 -7.934 -0.22400001
3.0810001 -7.9099998 -0.223
3.112 -7.9169998 -0.22400001
3.142 -7.9200001 -0.22499999
3.171 -7.9190001 -0.22499999
3.198 -7.915 -0.22499999
3.233 -7.9289999 -0.227
3.2379999 -7.9070001 -0.226
3.2750001 -7.9260001 -0.227
3.2980001 -7.9099998 -0.227
3.3280001 -7.9130001 -0.228
3.359 -7.9169998 -0.229
3.395 -7.9320002 -0.23
3.4100001 -7.9320002 -0.23
3.437 -7.9250002 -0.23
3.464 -7.9200001 -0.23100001
3.493 -7.9180002 -0.23100001
3.5280001 -7.9289999 -0.23199999
3.5569999 -7.927 -0.233
3.589 -7.9320002 -0.234
3.599 -7.921 -0.234
3.631 -7.9260001 -0.234
3.661 -7.9250002 -0.235
3.687 -7.9159999 -0.235
3.7219999 -7.9260001 -0.236
3.753 -7.9260001 -0.237
5.8410001 -12.204 -0.47600001
5.8280001 -12.129 -0.472
5.9130001 -12.207 -0.47799999
3.858 -7.9219999 -0.23899999
3.8900001 -7.9250002 -0.23999999
3.9200001 -7.9229999 -0.241
4.0100002 -8.0389996 -0.248
4 -7.9569998 -0.244
3.9849999 -7.8969998 -0.241
6.2090001 -12.176 -0.48300001
4.066 -7.9320002 -0.244
4.0869999 -7.9130001 -0.244
4.1160002 -7.9070001 -0.244
6.3839998 -12.14 -0.48500001
6.4289999 -12.134 -0.486
6.5749998 -12.361 -0.5
6.2249999 -11.445 -0.45100001
6.3909998 -11.662 -0.46399999
6.7729998 -12.264 -0.5
6.5159998 -11.671 -0.46799999
6.4860001 -11.534 -0.461
6.6820002 -11.793 -0.477
4.5250001 -7.9450002 -0.25600001
6.6279998 -11.446 -0.461
6.4489999 -11.099 -0.44100001
6.2820001 -10.734 -0.421
4.6690001 -7.934 -0.259
6.4580002 -10.877 -0.43200001
6.6399999 -11.103 -0.44600001
6.9850001 -11.595 -0.47600001
4.8130002 -7.948 -0.26300001
6.8080001 -11.183 -0.454
6.6939998 -10.92 -0.44
7.0539999 -11.424 -0.47099999
6.9970002 -11.252 -0.46200001
4.9489999 -7.9180002 -0.266
6.8829999 -10.918 -0.44499999
6.7160001 -10.58 -0.426
6.8740001 -10.79 -0.43900001
7.0840001 -10.966 -0.45199999
7.0419998 -10.826 -0.44499999
7.1900001 -10.978 -0.456
5.2259998 -7.9369998 -0.27399999
7.6589999 -11.532 -0.49200001
8.3479996 -12.523 -0.55199999
7.5019999 -11.183 -0.47299999
5.3670001 -7.96 -0.27900001
7.8239999 -11.505 -0.495
7.8169999 -11.418 -0.491
7.7950001 -11.31 -0.486
5.4910002 -7.9530001 -0.28200001
7.665 -11.011 -0.47
7.494 -10.623 -0.449
5.6230001 -7.9289999 -0.285
5.6500001 -7.915 -0.285
7.6719999 -10.661 -0.456
7.869 -10.896 -0.47099999
5.7680001 -7.9460001 -0.28999999
7.8569999 -10.598 -0.45899999
8.0970001 -10.778 -0.47299999
8.21 -10.892 -0.48199999
9.1059999 -11.998 -0.55299997
6.0640001 -7.9520001 -0.29899999
8.2259998 -10.702 -0.47400001
10.341 -13.357 -0.64499998
10.209 -13.102 -0.63099998
6.211 -7.9369998 -0.303
10.29 -13.077 -0.63200003
8.967 -11.329 -0.52200001
6.3569999 -7.9920001 -0.30899999
6.3509998 -7.9330001 -0.30700001
6.3909998 -7.9320002 -0.308
6.4510002 -7.9549999 -0.31099999
6.46 -7.915 -0.31
8.842 -10.784 -0.49700001
6.5469999 -7.9439998 -0.31400001
6.5819998 -7.9359999 -0.31400001
8.948 -10.706 -0.49700001
9.0500002 -10.759 -0.50300002
6.7220001 -7.9510002 -0.31900001
9.0719995 -10.683 -0.5
9.0900002 -10.636 -0.49900001
9.1339998 -10.62 -0.5
6.868 -7.9450002 -0.324
9.191 -10.551 -0.49900001
9.1960001 -10.49 -0.49700001
7.013 -7.9590001 -0.329
9.3280001 -10.54 -0.50300002
9.4960003 -10.661 -0.51300001
7.1339998 -7.9689999 -0.33399999
7.1459999 -7.9320002 -0.333
9.5959997 -10.571 -0.51300001
9.599 -10.509 -0.51099998
7.29 -7.9400001 -0.338
9.6219997 -10.434 -0.509
9.6590004 -10.408 -0.50999999
7.4200001 -7.954 -0.34299999
9.7609997 -10.386 -0.51200002
9.7670002 -10.328 -0.50999999
7.5560002 -7.9489999 -0.347
9.7650003 -10.198 -0.50599998
11.369 -11.829 -0.62
7.6890001 -7.9619999 -0.352
11.447 -11.761 -0.62099999
11.5 -11.741 -0.62199998
7.7940001 -7.9190001 -0.35499999
7.8470001 -7.9229999 -0.35699999
7.8920002 -7.895 -0.35699999
7.9819999 -7.934 -0.36199999
8.3039999 -8.1490002 -0.38100001
8.1009998 -7.902 -0.36500001
8.4119997 -8.1269999 -0.384
8.2320004 -7.9039998 -0.37
8.5649996 -8.1199999 -0.389
8.7119999 -8.1040001 -0.39399999
8.6219997 -7.895 -0.384
8.8649998 -8.0159998 -0.39700001
8.8190002 -7.9239998 -0.39199999
8.8990002 -7.9450002 -0.396
8.9130001 -7.9330001 -0.396
8.9980001 -7.9580002 -0.40000001
9.0410004 -7.9450002 -0.40099999
11.375 -9.9239998 -0.55500001
11.435 -9.9130001 -0.55699998
9.2139997 -7.9439998 -0.40799999
11.348 -9.7139997 -0.54699999
9.3210001 -7.96 -0.412
11.308 -9.5889997 -0.54100001
11.358 -9.5699997 -0.542
9.4709997 -7.9349999 -0.417
11.454 -9.5270004 -0.54500002
9.6260004 -7.961 -0.42399999
12.116 -9.9490004 -0.58399999
12.095 -9.8990002 -0.58099997
9.7469997 -7.9330001 -0.428
12.115 -9.7889996 -0.579
9.8959999 -7.9520001 -0.43399999
11.974 -9.5530005 -0.56599998
10.023 -7.9499998 -0.43900001
12.115 -9.5710001 -0.57200003
10.144 -7.9679999 -0.44400001
12.976 -10.118 -0.62300003
10.244 -7.8909998 -0.44600001
10.438 -7.9369998 -0.45500001
15.439 -11.685 -0.76899999
10.574 -7.9619999 -0.461
15.498 -11.577 -0.76800001
10.725 -7.9699998 -0.46799999
15.622 -11.518 -0.77100003
11.07 -8.118 -0.486
10.981 -7.973 -0.47799999
16.26 -11.714 -0.80299997
11.126 -7.9720001 -0.484
11.337 -8.0690002 -0.495
11.326 -8.0080004 -0.493
11.291 -7.9299998 -0.48899999
11.39 -7.9460001 -0.49399999
11.453 -7.9629998 -0.49700001
11.485 -7.9320002 -0.49700001
16.18 -11.087 -0.78100002
11.655 -7.941 -0.505
16.51 -11.161 -0.79699999
11.801 -7.9330001 -0.51099998
16.674 -11.12 -0.80299997
11.835 -7.875 -0.50999999
12.081 -7.9829998 -0.52399999
12.076 -7.9260001 -0.52200001
12.208 -7.9569998 -0.528
12.364 -7.948 -0.53500003
17.326 -11.049 -0.82800001
12.498 -7.9510002 -0.54000002
17.638 -11.131 -0.84399998
12.645 -7.934 -0.546
12.777 -7.96 -0.55199999
12.914 -7.9330001 -0.55800003
17.514 -10.71 -0.82700002
13.055 -7.9349999 -0.56400001
13.188 -7.9590001 -0.56999999
17.631001 -10.555 -0.82800001
13.327 -7.9289999 -0.57499999
17.009001 -10.039 -0.78799999
17.045 -9.9879999 -0.78899997
13.601 -7.948 -0.588
13.849 -8.0340004 -0.60100001
13.76 -7.9250002 -0.59399998
13.861 -7.9250002 -0.59799999
13.878 -7.8759999 -0.59799999
14.134 -7.9050002 -0.61000001
14.175 -7.8979998 -0.611
14.412 -7.9109998 -0.62199998
14.559 -7.9330001 -0.62900001
14.688 -7.9429998 -0.63499999
14.826 -7.8969998 -0.63999999
14.948 -7.9320002 -0.64600003
15.027 -7.914 -0.64899999
15.204 -7.9460001 -0.65799999
15.24 -7.9029999 -0.65899998
15.371 -7.9099998 -0.66500002
15.515 -7.9229999 -0.671
15.644 -7.9569998 -0.67799997
15.717 -7.9320002 -0.68099999
15.801 -7.9120002 -0.68400002
15.938 -7.9180002 -0.69
16.069 -7.9200001 -0.69599998
16.216999 -7.9299998 -0.70300001
16.305 -7.9089999 -0.70700002
16.399 -7.9229999 -0.71100003
16.573 -7.9419999 -0.71899998
16.722 -7.9489999 -0.72600001
16.854 -7.947 -0.73199999
16.990999 -7.9460001 -0.73799998
17.136 -7.948 -0.745
17.275 -7.947 -0.75099999
17.382 -7.9629998 -0.75700003
17.525 -7.961 -0.76300001
17.669001 -7.96 -0.76999998
17.802999 -7.9530001 -0.77600002
17.945 -7.948 -0.78200001
18.087 -7.9429998 -0.78799999
18.222 -7.934 -0.79400003
18.364 -7.9619999 -0.80199999
18.538 -7.9679999 -0.81
18.642 -7.9429998 -0.81400001
18.799 -7.9400001 -0.82099998
19.01 -7.9590001 -0.83099997
19.132999 -7.9390001 -0.83700001
19.285999 -7.967 -0.84399998
19.433001 -7.9559999 -0.85100001
19.865 -8.0600004 -0.87300003
19.726999 -7.9320002 -0.86400002
20.004 -7.8969998 -0.87599999
20.264999 -7.9260001 -0.889
12.249 -4.7800002 -0.45699999
12.115 -4.684 -0.449
12.038 -4.6110001 -0.44400001
11.987 -4.5489998 -0.44
11.85 -4.454 -0.43200001
11.714 -4.362 -0.42399999
11.68 -4.2870002 -0.421
11.761 -4.2740002 -0.42500001
11.759 -4.2319999 -0.42399999
11.731 -4.1799998 -0.42199999
11.736 -4.1409998 -0.42199999
11.732 -4.098 -0.421
11.728 -4.0549998 -0.41999999
11.734 -4.0370002 -0.41999999
11.749 -4.0009999 -0.41999999
11.748 -3.9590001 -0.419
11.766 -3.924 -0.419
11.729 -3.8710001 -0.417
11.69 -3.8180001 -0.414
11.812 -3.816 -0.41999999
11.883 -3.8180001 -0.42300001
12.355 -3.714 -0.44400001
12.433 -3.7160001 -0.44800001
12.541 -3.7049999 -0.45300001
12.616 -3.684 -0.45699999
11.449 -3.2290001 -0.39399999
11.352 -3.1630001 -0.38800001
11.309 -3.132 -0.38600001
11.301 -3.092 -0.38499999
11.289 -3.0510001 -0.384
11.301 -3.016 -0.384
11.287 -2.974 -0.38299999
11.293 -2.938 -0.38299999
11.29 -2.8989999 -0.382
11.293 -2.881 -0.382
11.309 -2.8469999 -0.382
11.345 -2.819 -0.384
11.391 -2.7920001 -0.38600001
11.419 -2.7609999 -0.38699999
11.426 -2.724 -0.38600001
11.394 -2.6789999 -0.384
33.973 -7.8790002 -1.548
34.393002 -7.862 -1.568
34.837002 -7.848 -1.589
35.331001 -7.8429999 -1.614
35.824001 -7.8340001 -1.638
36.327 -7.8239999 -1.6619999
36.826 -7.8709998 -1.687
37.342999 -7.8579998 -1.712
37.894001 -7.849 -1.739
38.443001 -7.8369999 -1.766
39.026001 -7.8280001 -1.795
39.546001 -7.803 -1.8200001
39.929001 -7.7480001 -1.839
40.122002 -7.7199998 -1.848
40.223999 -7.6079998 -1.852
40.27 -7.4860001 -1.853
40.313 -7.3629999 -1.854
28.903999 -5.006 -1.2690001
28.746 -4.9320002 -1.261
28.927 -4.869 -1.2690001
28.893 -4.77 -1.267
28.861 -4.6719999 -1.2640001
28.844 -4.5760002 -1.263
28.83 -4.4809999 -1.261
28.834 -4.3889999 -1.261
28.827 -4.342 -1.26
28.819 -4.2480001 -1.2589999
28.82 -4.1560001 -1.2589999
28.830999 -4.0650001 -1.258
28.844 -3.974 -1.258
28.844 -3.882 -1.258
29.09 -3.869 -1.27
28.841 -3.743 -1.257
28.848 -3.652 -1.257
28.891001 -3.566 -1.258
29.103001 -3.4990001 -1.268
29.479 -3.45 -1.2869999
30.049 -3.4200001 -1.3150001
30.778999 -3.454 -1.352
32.548 -3.444 -1.4400001
39.943001 -4.0939999 -1.812
39.972 -3.97 -1.813
40.023998 -3.848 -1.8150001
40.115002 -3.7290001 -1.819
40.199001 -3.6730001 -1.823
40.307999 -3.556 -1.8279999
40.397999 -3.4360001 -1.832
40.901001 -3.349 -1.857
41.613998 -3.2750001 -1.892
41.471001 -3.1329999 -1.885
41.227001 -2.984 -1.872
40.983002 -2.902 -1.859
40.93 -2.7690001 -1.8559999
40.772999 -2.6300001 -1.848
40.601002 -2.4909999 -1.839
40.448002 -2.3540001 -1.831
40.257 -2.2160001 -1.821
40.092999 -2.0810001 -1.812
39.928001 -2.01 -1.804
39.797001 -1.878 -1.7970001
39.623001 -1.745 -1.788
39.464001 -1.614 -1.78
39.306 -1.484 -1.771
39.146 -1.355 -1.763
38.997002 -1.227 -1.755
38.856998 -1.1619999 -1.748
38.731998 -1.036 -1.742
38.571999 -0.91100001 -1.734
38.477001 -0.78799999 -1.729
38.398998 -0.66600001 -1.725
38.317001 -0.54400003 -1.72
38.250999 -0.42300001 -1.717
38.199001 -0.36199999 -1.714
38.169998 -0.242 -1.7130001
38.120998 -0.122 -1.71
38.070999 -0.0020000001 -1.7079999
33.396 0.105 -1.6849999
33.386002 0.20999999 -1.6849999
33.387001 0.315 -1.6849999
33.386002 0.36700001 -1.6849999
33.370998 0.472 -1.684
33.373001 0.57700002 -1.684
33.384998 0.68199998 -1.6849999
33.424999 0.78799999 -1.687
33.438 0.89300001 -1.688
33.437 0.99800003 -1.688
33.452 1.051 -1.689
33.433998 1.156 -1.689
33.467999 1.262 -1.691
33.442001 1.3660001 -1.689
33.442001 1.472 -1.6900001
33.445 1.577 -1.6900001
33.419998 1.681 -1.689
33.500999 1.738 -1.694
33.296001 1.832 -1.682
32.189999 1.874 -1.62
32.015999 1.965 -1.6109999
32.707001 2.1099999 -1.65
32.999001 2.2320001 -1.6670001
32.750999 2.319 -1.653
32.688 2.3659999 -1.65
32.605999 2.464 -1.646
32.549 2.562 -1.643
32.296001 2.6440001 -1.6289999
32.328999 2.7490001 -1.632
31.497 2.779 -1.585
32.556 2.9749999 -1.645
25.792 2.4030001 -1.262
25.679001 2.474 -1.256
23.863001 2.3759999 -1.153
23.065001 2.3710001 -1.108
22.889 2.4260001 -1.098
22.809 2.49 -1.094
22.771999 2.5580001 -1.0930001
22.752001 2.592 -1.092
22.733999 2.6630001 -1.091
22.723 2.734 -1.091
22.736 2.8080001 -1.092
22.695999 2.875 -1.091
22.708 2.9489999 -1.092
22.691 3.02 -1.091
22.684 3.0550001 -1.091
22.684 3.128 -1.092
22.667 3.198 -1.091
22.666 3.27 -1.092
22.656 3.342 -1.092
22.677 3.4170001 -1.094
22.677999 3.49 -1.094
22.681999 3.5280001 -1.095
22.695 3.6029999 -1.096
22.715 3.6789999 -1.098
22.723 3.7539999 -1.099
22.74 3.8299999 -1.101
22.775999 3.9089999 -1.104
32.386002 5.7049999 -1.656
32.161999 5.77 -1.645
31.916 5.829 -1.631
32.011002 5.9510002 -1.638
31.957001 6.0450001 -1.636
32.055 6.1680002 -1.643
32.009998 6.211 -1.641
31.837999 6.2820001 -1.632
31.742001 6.3660002 -1.627
31.297001 6.3800001 -1.603
30.874001 6.395 -1.58
30.617001 6.4419999 -1.566
30.139999 6.441 -1.54
29.657 6.3870001 -1.512
29.288 6.4039998 -1.492
31.927 7.0840001 -1.646
31.875 7.178 -1.6440001
31.837 7.2750001 -1.6440001
31.761 7.362 -1.64
31.702999 7.454 -1.638
31.552999 7.4710002 -1.63
31.458 7.553 -1.626
31.327 7.6259999 -1.62
31.261999 7.7140002 -1.618
31.209 7.8049998 -1.6160001
31.149 7.8940001 -1.614
30.641001 7.868 -1.586
30.455999 7.8720002 -1.576
30.115 7.8850002 -1.557
29.893 7.928 -1.546
29.511 7.9260001 -1.525
29.195 7.9400001 -1.508
28.773001 7.9229999 -1.484
28.454 7.9310002 -1.467
28.209999 7.9109998 -1.454
30.160999 8.559 -1.5700001
30.149 8.658 -1.571
30.223 8.7819996 -1.577
30.066999 8.8389997 -1.569
29.990999 8.9200001 -1.566
29.806999 8.9160004 -1.556
29.721001 8.9919996 -1.553
29.575001 9.0489998 -1.546
29.416 9.1020002 -1.538
29.159 9.1230001 -1.525
28.833 9.1210003 -1.507
28.540001 9.1269999 -1.4910001
28.297001 9.099 -1.478
28.086 9.1289997 -1.467
27.822001 9.1400003 -1.4529999
27.558001 9.1490002 -1.439
27.304001 9.1610003 -1.425
27.063 9.1750002 -1.413
26.756001 9.165 -1.396
26.476999 9.1160002 -1.38
26.254 9.132 -1.369
26.033001 9.1470003 -1.357
25.826 9.165 -1.346
25.58 9.1689997 -1.334
25.347 9.1759996 -1.321
25.128 9.1859999 -1.3099999
24.941 9.1619997 -1.299
24.799999 9.1990004 -1.293
24.667999 9.2390003 -1.286
24.483999 9.2580004 -1.277
28.295 10.796 -1.5089999
28.15 10.842 -1.503
28.045 10.903 -1.498
27.964001 10.922 -1.494
27.868 10.986 -1.4910001
27.771 11.048 -1.487
27.714001 11.127 -1.4859999
23.247999 9.4230003 -1.215
22.806 9.3280001 -1.1900001
22.653 9.349 -1.183
22.639999 9.3850002 -1.183
22.52 9.4189997 -1.177
27.139999 11.445 -1.462
27.039 11.503 -1.4579999
20.577999 8.9139996 -1.0650001
21.247 9.243 -1.107
26.733999 11.722 -1.448
26.673 11.796 -1.446
26.587 11.857 -1.443
26.490999 11.915 -1.439
26.403 11.975 -1.436
26.339001 12.046 -1.4349999
26.259001 12.059 -1.431
26.174999 12.121 -1.428
26.086 12.179 -1.425
26.030001 12.253 -1.424
25.944 12.312 -1.421
25.865999 12.375 -1.418
25.795 12.44 -1.416
25.746 12.467 -1.414
25.681999 12.535 -1.413
25.605 12.598 -1.411
25.542 12.666 -1.409
25.476999 12.734 -1.4069999
25.417 12.804 -1.406
25.343 12.867 -1.404
25.296 12.893 -1.402
25.225 12.957 -1.4
25.17 13.029 -1.4
25.138 13.113 -1.4
25.082001 13.184 -1.399
25.023001 13.253 -1.398
24.969 13.325 -1.397
24.922001 13.35 -1.396
24.853001 13.415 -1.3940001
24.781 13.476 -1.392
24.737 13.553 -1.392
24.652 13.608 -1.3890001
24.587 13.672 -1.388
24.521 13.737 -1.386
24.504999 13.778 -1.387
24.437 13.842 -1.385
24.434999 13.942 -1.388
24.356001 13.999 -1.385
24.304001 14.07 -1.385
24.259001 14.147 -1.385
24.23 14.181 -1.3839999
24.179001 14.253 -1.3839999
24.127001 14.324 -1.3839999
24.07 14.393 -1.383
24.017 14.464 -1.382
23.983999 14.547 -1.383
23.933001 14.619 -1.383
23.895 14.647 -1.382
23.841999 14.718 -1.381
23.780001 14.784 -1.38
23.73 14.856 -1.38
23.67 14.922 -1.3789999
23.613001 14.99 -1.378
23.566999 15.065 -1.3789999
23.513 15.083 -1.377
22.445 14.499 -1.308
22.294001 14.501 -1.301
22.188 14.531 -1.2970001
23.094 15.331 -1.364
22.969 15.353 -1.359
22.870001 15.339 -1.354
22.721001 15.342 -1.347
22.577 15.349 -1.341
22.438 15.358 -1.334
22.291 15.36 -1.3279999
22.158001 15.372 -1.322
22.02 15.379 -1.316
21.909 15.353 -1.3099999
21.773001 15.359 -1.304
21.628 15.36 -1.2970001
21.495001 15.367 -1.291
21.368999 15.379 -1.286
21.24 15.387 -1.28
21.106001 15.392 -1.274
21.031 15.388 -1.271
20.922001 15.409 -1.266
20.83 15.443 -1.263
20.754 15.488 -1.261
20.672001 15.528 -1.2589999
20.57 15.553 -1.255
20.490999 15.595 -1.253
20.431999 15.6 -1.251
20.357 15.645 -1.249
20.285999 15.692 -1.247
20.209999 15.735 -1.245
20.141001 15.783 -1.244
20.059 15.821 -1.242
19.982 15.862 -1.24
19.923 15.866 -1.237
19.844999 15.906 -1.235
19.773001 15.951 -1.233
19.704 15.998 -1.232
19.635 16.045 -1.2309999
19.577 16.1 -1.23
19.521999 16.107 -1.228
19.438 16.139999 -1.226
19.341 16.163 -1.222
19.281 16.216 -1.222
19.219 16.267 -1.221
19.132999 16.298 -1.2180001
19.052999 16.333 -1.216
19.004999 16.343 -1.214
18.92 16.374001 -1.212
18.84 16.409 -1.21
18.763 16.445 -1.2079999
18.681999 16.479 -1.206
18.601999 16.513 -1.2029999
18.518999 16.542999 -1.201
18.455999 16.539 -1.198
18.392 16.586 -1.197
18.316 16.622 -1.196
18.229 16.649 -1.193
18.164 16.694 -1.192
18.076 16.718 -1.189
17.975 16.73 -1.186
17.915001 16.726999 -1.183
17.823 16.747 -1.1799999
15.349 14.518 -0.99199998
15.234 14.5 -0.986
15.103 14.467 -0.98000002
15.177 14.629 -0.98900002
14.969 14.52 -0.97600001
14.866 14.465 -0.97000003
14.243 14.393 -0.94199997
14.187 14.381 -0.93900001
13.982 14.353 -0.93000001
13.906 14.365 -0.92799997
13.822 14.368 -0.92400002
13.723 14.356 -0.92000002
13.019 14.324 -0.89200002
12.857 14.416 -0.889
12.829 14.476 -0.89099997
12.616 14.326 -0.87599999
12.538 14.328 -0.87400001
12.483 14.312 -0.87099999
12.408 14.316 -0.86799997
12.303 14.286 -0.86299998
12.239 14.302 -0.861
12.178 14.322 -0.86000001
12.119 14.343 -0.85900003
12.061 14.366 -0.85799998
12.031 14.376 -0.85699999
11.938 14.448 -0.85699999
11.901 14.496 -0.85799998
11.84 14.515 -0.85600001
11.798 14.557 -0.85699999
11.803 14.609 -0.85900003
11.77 14.662 -0.86000001
11.682 15.079 -0.87599999
11.683 15.177 -0.88
11.828 15.466 -0.898
11.733 15.443 -0.89399999
11.757 15.575 -0.89999998
13.693 18.250999 -1.087
13.617 18.268999 -1.085
13.527 18.268 -1.082
13.471 18.252001 -1.08
13.387 18.257999 -1.077
13.3 18.259001 -1.074
13.215 18.264 -1.072
13.128 18.263 -1.069
13.039 18.26 -1.066
12.958 18.268999 -1.063
12.897 18.243 -1.0599999
12.819 18.254 -1.058
12.735 18.257 -1.056
12.649 18.256001 -1.053
12.561 18.250999 -1.05
12.481 18.257999 -1.048
12.43 18.243999 -1.045
12.351 18.252001 -1.043
12.271 18.256001 -1.041
12.184 18.250999 -1.038
12.108 18.261 -1.036
12.027 18.261999 -1.033
11.944 18.261999 -1.031
11.866 18.267 -1.029
11.819 18.257 -1.027
11.725 18.239 -1.023
11.653 18.252001 -1.021
11.576 18.257999 -1.0190001
11.5 18.264 -1.017
11.442 18.299999 -1.017
11.444 18.431 -1.024
11.471 18.539 -1.03
11.443 18.624001 -1.033
9.5310001 15.63 -0.83200002
8.9729996 14.823 -0.77700001
8.8959999 14.8 -0.773
8.8219995 14.782 -0.76999998
8.7510004 14.768 -0.76800001
8.7080002 14.749 -0.76599997
8.6490002 14.754 -0.764
8.5830002 14.749 -0.76200002
8.5270004 14.758 -0.76099998
8.4580002 14.747 -0.75800002
8.3999996 14.753 -0.75700003
8.3730001 14.759 -0.75700003
8.3199997 14.773 -0.75599998
8.2580004 14.771 -0.75400001
8.1999998 14.778 -0.75300002
